35 36 37 38 38 40 40 41 43 44 44 46 47 49 51 52 54 54 55 55 56 56 57 58 58 58 58 59 59 59 59 59 59 59 59 59 59 59 60 60 60 60 60 60 61 61 61 61 61 62 63 64 64 65 65 66 66 67 67 67 67 68 68 68 68 68 68 68 68 68 68 68 67 68 68 68 68 68 68 68 69 69 71 72 73 75 76 76 76 77 77 77 78 78 78 78 78 77 77 77 77 77 77 77 78 78 78 78 77 76 76 75 75 75 74 73 72 72 72 70 70 70 69 69 69 69 70 70 70 70 70 70 70 70 70 70 70 70 70 70 70 70 71 72 72 73 74 74 74 74 74 74 74 75 74 74 74 73 72 71 71 71 71 70 70 70 70 70 70 70 70 70 69 70 70 70 70 70 70 70 70 70 70 70 70 71 71 71 71 71 70 70 70 70 70 70 70 70 71 71 71 71 71 71 71 71 71 71 71 70 70 71 71 71 71 71 71 71 71 71 71 71 71 71 72 72 73 74 74 75 75 76 77 78 78 78 78 78 78 78 78 78 78 78 78 77 77 77 77 77 78 78 78 78 78 78 79 79 80 80 81 81 81 81 81 81 81 80 79 79 78 77 77 77 77 77 78 79 79 80 82 83 85 86 87 86 86 85 84 84 83 82 80 79 77 76 75 73 72 71 71 70 69 68 68 67 67 67 67 67 68 68 68 68 69 69 69 69 69 69 69 69 70 70 70 70 70 70 70 70 70 71 72 73 73 74 75 78 80 81 82 84 85 86 86 86 86 86 85 85 85 84 83 83 81 81 80 79 79 78 79 79 79 79 79 79 79 79 79 80 81 81 81 81 81 81 81 82 82 81 81 81 81 81 80 80 80 79 79 78 78 77 77 77 76 75 75 74 73 73 73 73 73 73 73 74 74 74 74 74 74 74 74 74 74 74 74 75 77 77 78 79 80 81 81 82 83 84 85 85 85 85 85 85 85 85 85 86 86 86 85 85 85 85 85 85 85 85 85 85 85 84 84 83 83 84 84 84 84 84 84 84 85 85 85 85 86 86 84 84 83 82 82 80 80 78 77 76 75 73 72 70 69 68 65 63 61 59 58 56 53 52 51 49 48 46 46 45 44 44 43 42 42 43 43
33 35 36 38 38 40 41 42 43 44 45 47 48 50 51 52 53 54 55 55 56 56 57 57 57 57 58 59 59 59 59 59 59 59 59 60 60 59 60 60 60 60 61 61 61 61 62 62 62 62 63 64 64 65 65 66 66 67 67 67 67 68 68 68 68 68 68 67 67 68 68 68 68 68 68 68 68 68 68 69 70 70 70 71 74 75 76 77 78 78 78 78 78 78 78 78 78 78 78 78 78 78 78 78 79 78 78 78 77 77 76 75 75 75 74 73 73 72 72 71 70 70 70 70 70 70 70 70 70 70 70 70 70 70 70 70 70 70 70 71 71 71 72 72 72 73 73 73 74 74 74 74 74 74 74 74 74 73 73 71 71 71 71 71 70 70 70 70 70 70 70 70 70 70 70 70 70 70 70 70 70 70 71 71 71 71 71 71 71 71 71 71 71 71 71 71 71 71 72 72 72 72 72 72 71 71 71 71 71 71 72 72 72 72 72 72 72 72 72 72 72 72 72 71 72 72 73 74 75 76 76 77 78 79 79 79 79 79 79 79 79 78 78 78 78 77 77 78 78 78 78 78 78 78 78 78 78 78 79 80 81 81 81 81 81 81 81 80 80 79 78 78 77 77 77 77 78 79 80 80 82 83 85 86 87 87 87 87 86 85 85 83 82 81 79 78 76 75 72 71 71 70 69 69 69 68 68 68 68 68 69 69 69 69 69 69 69 69 69 69 69 69 69 69 69 69 70 70 70 70 70 71 71 72 74 75 77 78 80 81 82 83 84 85 85 85 85 85 84 84 84 83 82 82 81 81 80 79 79 78 78 78 78 78 78 78 78 78 80 80 81 81 81 81 81 81 81 82 82 81 81 81 81 81 81 81 80 79 79 78 77 77 77 77 76 75 75 74 73 73 73 72 72 72 72 72 72 73 73 73 73 73 74 74 74 74 74 75 76 77 78 79 79 80 81 82 83 83 83 84 84 84 85 85 85 85 85 85 85 86 85 85 85 85 85 85 85 85 85 85 84 84 84 83 83 84 84 84 84 85 85 85 86 86 86 86 86 85 85 84 83 82 82 80 80 78 78 76 75 73 72 71 69 68 66 64 61 59 57 56 53 52 51 49 48 46 46 45 44 44 43 43 43 44 44
34 35 36 37 38 40 41 42 43 45 46 48 49 50 51 52 53 54 55 55 56 56 57 57 57 57 58 58 58 59 59 59 59 59 59 59 60 60 60 61 61 61 61 61 62 62 62 62 62 62 63 63 64 65 65 66 67 68 68 68 67 67 67 67 67 67 68 68 67 68 68 68 68 68 68 68 68 68 68 69 70 70 71 72 73 75 76 77 78 78 78 78 78 78 78 78 78 78 78 78 78 79 79 79 79 78 78 78 77 77 76 75 76 75 74 74 73 72 72 72 71 70 70 70 70 70 70 70 70 70 70 70 70 70 70 71 71 71 71 71 71 71 72 72 72 73 73 73 73 74 74 74 74 74 74 73 73 73 72 71 72 72 71 71 70 70 70 70 70 70 70 70 70 70 70 70 70 70 70 71 70 70 71 71 71 71 71 71 71 71 71 71 71 71 71 72 72 72 73 72 72 72 72 72 72 72 72 72 72 72 73 73 73 73 73 73 73 73 72 72 72 72 72 72 73 73 74 75 76 77 77 78 78 79 79 79 79 79 79 79 79 78 78 78 78 78 78 78 77 77 77 77 78 78 78 78 78 78 79 80 81 82 82 82 81 81 81 81 80 79 79 78 77 77 77 77 78 79 80 81 83 84 86 87 88 88 88 88 87 86 86 84 83 81 79 78 76 75 74 73 72 71 70 70 70 69 69 69 69 69 70 70 69 69 69 69 69 69 69 69 69 69 69 70 70 70 70 70 70 69 70 71 72 73 74 75 76 78 79 80 81 82 83 83 83 83 84 84 84 84 84 83 82 82 81 80 80 79 78 78 77 77 76 77 77 77 78 78 79 80 81 81 81 81 81 81 81 81 81 81 81 81 81 82 81 81 80 80 79 78 77 77 77 76 75 75 74 74 73 72 72 72 72 72 72 72 72 73 73 73 73 73 73 73 73 74 74 75 76 76 77 78 79 80 81 81 83 83 83 84 84 84 84 84 84 84 84 84 84 84 84 84 85 85 85 85 85 85 85 84 84 84 84 84 84 84 84 84 84 85 85 85 86 86 86 86 86 85 85 84 83 82 81 81 80 79 78 76 75 74 72 71 69 68 66 64 61 59 57 55 54 52 51 49 48 47 46 45 45 44 44 44 44 44 44
35 36 37 37 38 40 41 43 44 45 46 48 49 50 51 53 53 54 55 55 55 55 56 56 56 56 57 58 58 59 59 59 59 59 59 59 59 59 59 60 60 60 61 61 62 62 62 62 62 62 63 64 64 65 65 66 67 67 67 67 67 67 67 67 67 67 68 68 67 67 67 67 67 67 67 68 68 68 69 69 69 70 71 72 73 74 75 77 78 78 78 78 78 78 78 78 78 78 79 79 79 79 79 79 79 78 78 78 78 77 76 76 76 75 74 74 73 73 73 72 71 70 70 70 70 70 70 70 70 70 70 70 71 71 71 71 71 71 71 71 71 71 72 73 73 74 74 74 74 74 74 74 74 74 74 74 74 73 72 72 72 72 72 71 70 70 71 71 71 70 70 70 70 70 70 70 70 70 70 71 71 71 71 71 71 71 71 71 71 71 71 72 72 72 71 72 72 72 73 73 73 73 73 73 73 73 73 73 73 73 74 74 74 73 73 73 73 73 73 73 73 73 73 74 74 74 75 76 77 78 79 79 78 79 79 79 79 80 80 80 79 78 78 79 79 78 78 77 77 77 77 77 78 78 78 78 79 79 79 80 81 82 82 82 81 81 81 80 79 79 79 78 77 77 78 78 78 79 80 82 83 85 86 87 88 89 89 88 87 86 86 84 83 82 80 79 77 76 74 73 73 72 71 72 71 70 70 69 69 69 70 70 69 69 69 69 69 69 69 70 70 70 70 70 70 70 70 70 69 69 70 71 72 73 73 74 75 77 78 79 80 81 81 82 83 83 84 84 84 84 83 82 82 81 81 80 79 79 78 77 76 75 75 75 77 77 78 78 79 80 80 80 80 80 80 80 81 81 81 82 82 82 82 82 81 81 80 80 79 78 78 77 76 76 75 74 73 72 72 72 71 71 72 72 72 72 72 72 72 72 72 72 73 73 73 73 74 74 75 76 77 78 79 80 81 81 82 83 83 83 83 83 83 83 84 84 84 84 84 84 84 85 85 85 84 84 84 84 84 84 84 84 84 84 84 84 84 84 84 85 85 85 86 86 86 86 86 86 85 84 83 82 82 81 80 79 78 77 75 74 72 71 69 68 66 64 62 60 57 54 52 51 50 48 47 46 46 45 44 44 44 44 45 45 45
36 37 38 38 39 40 41 42 43 44 47 48 50 51 51 53 54 54 55 55 55 55 56 56 56 56 57 58 58 58 58 58 58 58 58 59 59 59 59 59 60 60 61 61 62 62 62 62 62 62 63 64 65 65 66 66 67 67 67 67 67 67 67 67 67 67 67 67 66 67 67 67 67 67 67 67 67 68 69 69 69 70 71 72 73 73 75 76 77 77 78 78 78 78 79 79 79 78 79 79 79 79 79 79 79 78 79 79 78 77 77 76 76 75 75 74 73 73 73 72 71 71 71 70 70 70 70 70 71 71 71 71 71 71 71 71 71 71 71 71 71 71 72 72 72 73 73 73 73 73 73 74 74 74 74 74 74 73 72 72 72 72 72 71 71 71 71 71 71 70 70 70 70 70 70 71 71 71 71 71 71 71 71 71 71 71 71 72 72 71 71 72 72 72 72 72 72 72 73 73 73 73 73 73 73 73 74 74 73 73 74 74 74 74 74 74 74 74 74 74 74 74 74 75 75 75 76 76 77 78 79 79 79 79 80 80 80 80 80 80 79 79 79 79 79 78 78 77 77 77 77 77 77 77 77 77 78 78 79 80 81 81 82 82 81 81 81 80 79 79 78 78 78 78 78 78 79 80 80 82 83 85 86 87 88 89 89 88 87 87 86 85 84 83 81 80 77 76 75 74 74 73 71 72 71 70 70 70 70 70 71 71 70 70 70 69 70 70 70 70 70 70 70 70 70 70 70 70 70 70 70 71 71 72 73 74 75 75 77 79 80 81 81 82 83 83 83 83 83 83 83 82 81 81 79 78 77 77 77 77 76 75 75 75 75 76 77 78 79 80 80 80 81 81 81 81 81 81 81 82 82 82 82 82 81 81 81 80 79 78 77 77 76 75 75 74 73 72 72 72 71 71 71 71 71 71 71 71 71 71 71 71 71 71 72 73 74 74 75 76 77 78 78 79 80 81 82 83 83 83 83 83 83 83 84 84 84 84 84 84 84 84 84 84 84 84 85 85 85 85 84 84 84 84 84 84 84 84 84 85 85 85 86 86 86 86 87 86 85 85 83 82 82 81 80 79 77 75 74 73 71 70 68 66 64 62 60 58 56 54 53 51 50 48 47 46 46 46 45 45 45 45 46 46 46
36 37 38 38 39 41 42 43 44 45 46 48 51 52 52 53 54 55 55 55 55 55 56 56 56 56 57 57 58 58 58 58 58 58 58 59 59 59 59 59 60 60 61 61 62 62 62 62 63 63 63 64 65 65 65 66 67 67 67 67 66 66 66 66 66 67 67 67 66 66 66 66 66 67 67 67 67 68 68 68 69 70 71 71 72 73 75 75 76 77 78 78 78 78 79 79 79 79 79 79 79 79 79 79 79 79 79 79 78 78 77 76 76 75 75 74 73 73 73 72 72 71 71 71 71 71 71 71 71 71 71 71 71 71 71 71 71 71 71 71 71 72 72 72 73 73 73 73 73 73 73 74 74 74 74 73 73 73 73 73 72 72 72 72 71 71 71 71 71 70 70 70 71 71 71 71 71 71 71 71 71 71 71 71 71 71 71 72 72 72 72 72 72 72 72 72 72 72 73 73 73 73 73 73 73 73 74 74 74 74 75 75 75 75 75 75 75 75 75 75 75 75 75 75 75 75 76 77 78 78 79 79 79 80 80 80 80 80 80 79 79 79 79 79 79 78 78 77 77 77 77 77 77 77 78 78 78 78 79 80 81 81 82 82 82 82 81 80 80 78 78 78 78 78 78 78 79 80 80 82 83 85 86 87 87 88 88 88 88 87 86 85 84 83 80 80 78 76 75 74 74 73 72 73 72 71 71 71 71 71 72 72 71 71 71 69 70 70 70 70 70 70 70 70 70 70 70 70 70 70 70 70 71 72 73 74 75 75 77 78 79 79 80 81 82 83 83 83 83 83 82 81 80 79 79 78 77 77 76 75 75 75 75 75 75 76 77 77 78 79 79 80 81 81 81 81 81 81 82 82 82 82 82 82 82 81 80 80 79 78 78 77 76 75 75 74 73 73 72 71 71 71 70 69 70 70 70 70 70 70 71 71 71 71 72 73 73 74 75 76 76 78 79 80 80 81 82 83 83 83 83 83 83 83 83 83 83 83 84 84 84 84 84 85 85 85 85 85 85 85 84 84 84 84 84 84 85 85 85 86 86 86 86 87 87 87 86 85 85 83 82 82 81 80 79 78 77 76 74 73 71 70 69 66 64 62 60 58 56 54 53 51 50 49 48 47 47 47 46 46 46 46 47 47 47
37 38 38 39 40 42 43 44 45 46 47 49 50 51 52 53 54 55 56 56 56 56 56 56 56 56 56 56 57 57 57 57 58 58 58 59 59 59 59 59 60 60 60 61 62 63 63 63 63 63 63 64 65 65 65 65 66 66 66 66 66 66 66 66 66 66 66 66 66 66 66 66 66 66 66 67 67 68 68 68 68 69 70 71 72 73 74 75 76 77 77 78 78 78 78 79 79 79 79 79 79 79 79 80 80 80 79 79 78 78 77 76 76 76 75 74 74 73 73 73 72 72 72 71 70 71 71 71 71 71 71 71 71 71 71 71 71 72 72 72 72 72 72 72 73 73 73 73 73 73 73 73 73 73 73 73 73 73 73 73 72 72 72 72 71 71 71 71 71 71 71 71 71 71 71 71 71 71 71 71 71 71 71 71 72 72 72 72 72 72 72 72 72 72 72 72 72 73 73 73 73 73 73 74 74 74 75 75 75 75 76 76 76 76 76 76 76 75 75 75 75 75 76 76 76 76 77 78 78 78 79 79 79 80 80 80 80 80 80 79 79 78 78 78 78 77 77 77 77 77 77 78 78 78 78 78 78 78 79 79 80 81 81 81 81 81 81 80 79 79 78 78 78 78 78 78 79 80 81 82 84 85 85 86 87 88 88 88 87 87 87 85 83 82 80 80 78 77 76 75 75 74 73 74 73 72 72 72 72 73 72 72 71 71 71 70 70 70 70 70 70 70 70 70 71 71 71 71 70 70 70 70 71 72 72 73 74 75 76 77 78 79 80 81 81 82 82 82 83 82 82 81 80 78 77 77 76 76 75 75 74 74 74 74 75 75 76 77 78 79 79 80 80 81 81 81 81 81 82 82 82 82 82 82 82 81 80 80 79 78 78 77 76 76 75 74 74 73 72 72 71 70 70 69 69 70 70 70 70 70 70 70 70 71 73 73 73 74 75 76 77 78 78 79 80 81 82 83 83 83 83 83 83 83 83 83 84 84 84 85 85 85 85 85 85 85 85 85 85 85 84 84 85 85 85 85 85 85 86 86 87 87 87 87 87 87 86 85 85 83 83 82 81 81 79 79 77 76 74 73 72 70 69 66 64 62 60 58 56 54 53 52 50 50 49 48 48 48 47 47 46 46 47 47 47
37 38 39 40 41 43 44 45 46 46 47 49 50 51 52 53 54 55 56 56 56 56 56 56 56 56 56 56 57 57 57 57 57 57 58 58 58 59 59 59 59 60 60 60 61 62 63 63 63 63 64 64 65 65 65 65 66 66 66 66 66 65 65 65 66 66 66 66 66 66 66 66 66 66 66 66 66 67 67 67 68 69 70 71 72 73 74 75 76 76 77 77 77 78 78 78 79 79 79 79 79 79 79 80 80 80 79 79 79 78 77 77 77 76 75 75 74 73 73 73 72 72 72 71 71 71 71 71 71 71 71 71 71 71 72 72 72 72 72 72 72 72 72 72 73 73 73 73 73 73 73 73 73 74 74 74 73 73 73 73 72 72 73 72 71 71 71 71 72 71 71 71 70 70 71 71 71 71 71 71 71 72 72 72 72 72 72 72 72 72 72 72 72 72 72 72 72 73 73 73 74 74 74 75 75 75 76 76 76 76 77 77 76 76 76 76 76 76 76 76 76 76 77 77 77 78 78 78 78 79 79 79 79 80 80 80 80 80 80 80 79 78 79 79 78 77 77 78 78 77 77 78 78 78 78 78 78 78 78 79 80 81 81 81 81 81 80 80 79 79 78 78 78 78 78 78 79 80 81 82 83 84 85 86 87 87 88 88 87 87 85 85 83 82 80 80 79 78 77 76 76 75 74 75 74 72 72 72 72 73 73 73 72 72 72 71 70 70 70 70 70 71 71 71 71 71 71 71 70 70 70 70 70 71 72 73 74 74 75 77 78 78 79 81 82 82 82 82 82 82 81 80 79 78 77 76 76 75 74 74 74 74 74 74 75 75 76 77 78 79 79 80 80 80 81 81 81 82 82 82 82 82 82 82 82 81 80 80 79 78 78 77 77 76 75 75 74 73 73 72 71 70 70 69 69 69 69 69 69 69 70 70 70 71 72 72 73 74 75 76 77 78 78 79 80 81 82 82 82 83 83 83 83 83 84 84 84 84 84 85 85 85 85 85 85 85 85 85 85 85 85 86 86 86 86 86 85 85 86 86 87 87 87 87 87 87 86 86 85 84 83 82 82 81 80 79 77 76 74 73 72 70 69 67 65 63 61 59 57 55 53 52 51 50 49 48 48 47 47 47 47 48 49 49 50
38 39 40 40 42 43 44 45 46 47 48 50 51 52 53 54 54 55 56 56 56 56 56 56 56 56 56 56 57 57 57 57 57 58 58 58 59 59 59 59 60 60 60 60 61 62 62 63 63 63 64 64 64 64 64 64 65 65 65 65 66 65 65 65 66 66 66 66 65 65 65 65 65 66 66 66 66 66 67 67 68 69 70 70 71 72 73 74 74 75 76 77 77 77 77 78 79 79 79 79 79 80 80 80 80 80 79 79 79 79 78 77 77 76 76 75 74 73 73 73 73 73 72 72 71 71 71 71 71 71 72 72 72 71 72 72 72 72 72 72 72 72 72 72 72 72 73 73 73 73 73 73 73 74 74 74 73 73 73 73 73 73 73 72 72 72 72 72 72 71 71 71 70 70 71 71 71 71 71 71 71 71 71 71 71 71 72 72 72 72 72 72 72 73 73 73 73 73 74 74 74 75 75 76 76 76 77 76 76 76 77 77 77 77 77 77 77 77 77 77 77 77 78 78 78 78 78 78 78 79 79 79 80 80 80 80 80 80 80 79 79 79 78 78 78 77 77 78 78 78 78 78 78 78 78 78 78 78 78 79 80 81 81 81 81 81 80 80 79 78 78 78 79 79 79 79 80 80 81 82 83 84 85 86 87 87 87 87 87 86 86 85 84 82 81 80 79 79 78 77 76 75 74 75 74 73 73 73 73 74 74 74 73 73 72 72 71 71 71 70 70 71 71 71 71 71 71 71 70 70 70 71 71 71 72 72 73 74 75 77 78 79 80 81 82 82 82 82 82 81 81 80 79 77 77 76 75 75 74 74 74 74 74 74 74 75 76 77 77 78 79 80 80 81 81 81 81 82 82 82 82 83 83 82 82 81 81 80 79 79 78 77 77 76 75 75 74 73 73 72 71 71 69 69 69 69 70 70 70 70 70 70 70 71 72 72 73 74 75 75 76 77 78 79 79 80 81 82 82 82 82 82 83 83 84 84 84 84 85 85 85 85 85 85 85 86 86 86 86 86 86 86 86 86 86 86 86 86 86 87 87 87 87 87 87 87 87 86 85 84 83 82 82 81 80 79 78 76 75 74 73 71 70 66 64 62 60 58 56 53 52 51 50 50 49 48 49 48 48 48 49 50 50 51 52
39 39 40 40 41 42 44 46 47 48 49 50 51 52 53 54 55 55 56 56 56 56 56 56 57 57 57 57 57 57 57 57 57 57 58 58 59 59 59 59 60 60 60 61 61 62 62 62 63 63 63 64 64 64 64 64 65 65 65 65 65 65 65 65 65 65 65 65 65 65 65 65 65 66 66 66 66 66 67 67 68 68 68 69 70 71 72 73 73 74 75 76 77 77 77 77 78 78 79 79 79 80 80 80 80 80 80 80 80 79 78 78 77 76 76 75 74 74 74 73 73 73 73 72 71 71 71 71 71 71 72 72 72 72 72 72 71 71 71 71 72 72 72 72 72 72 72 73 73 73 73 73 73 73 73 73 73 73 73 74 73 73 73 72 72 72 72 72 72 71 71 71 71 71 71 71 71 71 71 71 71 71 72 72 71 71 72 72 72 72 72 72 72 72 72 72 73 73 74 74 74 75 75 76 76 76 77 77 77 78 78 78 78 77 77 77 77 77 77 78 78 77 78 78 78 78 78 79 79 79 79 79 79 79 79 79 79 79 80 79 79 79 78 78 78 78 78 78 78 78 78 78 78 78 78 78 78 79 78 79 80 81 81 81 81 81 81 80 79 79 79 79 79 79 79 79 79 80 81 82 83 84 84 85 86 86 86 86 86 86 86 85 84 82 81 80 79 79 78 77 77 76 75 76 75 74 74 74 74 75 75 74 74 73 72 72 71 71 71 71 71 72 72 72 71 71 71 71 71 71 71 71 71 71 72 72 73 74 76 77 78 79 80 80 81 81 81 81 82 81 80 80 79 77 77 76 75 75 74 74 73 73 73 74 74 74 76 77 78 78 79 80 80 81 81 82 82 83 83 83 83 83 83 82 82 82 81 80 80 79 78 77 77 76 75 75 74 73 72 71 71 70 69 70 70 70 70 70 70 70 70 70 70 71 72 72 73 73 74 75 76 77 77 78 79 80 81 82 82 82 82 82 83 83 83 84 84 85 86 86 86 86 86 86 86 87 86 86 86 86 86 87 87 87 87 87 87 87 87 87 87 87 87 87 88 87 87 86 85 84 83 83 81 80 79 78 77 76 75 74 72 71 69 67 64 62 60 58 56 54 53 52 51 51 50 49 50 49 49 50 51 51 52 51 52
39 40 41 41 42 43 44 45 46 49 50 51 52 52 53 54 55 55 56 56 56 56 57 57 57 57 57 57 57 57 57 57 57 57 58 58 58 59 59 59 60 60 60 61 62 62 63 63 63 63 63 64 64 64 64 64 65 65 65 65 65 64 64 64 65 65 65 65 64 65 65 65 65 65 65 65 65 65 66 66 66 67 68 69 70 70 71 73 73 74 75 76 76 76 76 77 78 78 79 79 79 80 80 80 80 80 80 80 80 79 78 78 77 77 76 75 75 74 74 73 73 74 73 72 71 71 71 71 72 72 72 72 72 72 72 71 72 72 72 72 72 72 72 72 72 72 72 72 72 72 72 72 73 73 73 73 73 73 73 73 73 73 73 73 72 72 72 72 72 71 72 71 71 71 71 71 71 71 71 71 71 71 72 72 72 72 72 72 72 72 72 72 72 72 72 72 73 73 74 74 74 75 75 76 77 77 77 78 78 78 78 78 78 77 77 78 77 77 77 78 78 78 78 78 78 78 78 79 79 79 79 79 79 79 79 79 79 79 80 79 78 78 78 78 78 78 78 78 78 78 78 78 78 78 78 78 78 79 79 79 80 80 81 81 81 81 81 80 79 79 79 79 79 79 79 79 79 80 81 82 82 83 84 85 85 86 86 86 86 85 86 85 84 82 81 80 80 80 79 78 78 77 76 76 76 75 75 75 75 75 75 74 74 73 73 72 72 72 72 72 72 73 72 72 71 71 71 72 71 71 71 71 71 71 72 73 74 75 76 77 78 78 79 80 81 81 81 81 82 81 80 80 78 77 76 75 75 74 73 74 73 73 73 73 74 75 76 77 78 78 79 79 80 81 81 82 82 83 83 83 83 83 83 83 82 82 81 80 80 79 78 78 76 76 75 74 74 73 72 72 72 71 70 70 70 70 70 70 70 70 70 70 70 71 71 72 73 74 74 75 76 76 77 78 79 81 81 82 82 82 83 83 83 83 84 84 84 85 86 87 87 86 86 86 86 87 87 87 87 87 87 88 88 88 88 88 88 88 87 87 87 87 87 88 88 87 86 86 84 84 83 82 82 80 79 79 78 78 76 74 72 71 69 67 65 63 61 59 57 55 54 53 52 52 51 50 51 51 49 50 51 51 52 54 55
40 41 42 42 43 44 45 46 46 48 49 51 52 52 53 54 55 56 56 57 57 57 57 57 57 57 57 57 57 57 57 57 57 57 58 58 58 59 59 59 60 60 60 61 62 62 63 63 63 63 63 63 63 63 63 63 64 64 64 64 65 64 64 64 65 65 65 65 64 64 64 64 65 65 65 65 65 65 66 66 66 67 67 69 70 70 71 72 73 74 74 75 75 75 76 76 77 77 79 79 80 80 80 80 80 81 80 80 80 79 79 78 77 78 76 76 75 74 74 73 73 74 73 72 72 72 72 72 72 71 71 71 71 72 72 71 72 72 72 72 72 72 72 72 72 72 72 72 73 73 73 73 73 73 73 73 73 73 73 73 73 73 73 73 72 72 72 72 72 72 72 71 71 71 71 71 71 71 71 71 72 72 72 72 72 72 72 72 72 72 72 72 73 72 72 72 73 73 74 74 74 75 75 76 77 78 78 78 78 78 78 78 78 77 77 78 78 78 78 78 78 78 78 78 78 78 78 78 79 79 79 79 79 79 79 80 79 79 79 78 78 78 78 78 78 78 78 78 78 78 78 78 78 79 79 79 79 79 79 79 80 80 80 80 80 80 80 80 79 79 79 79 79 79 79 79 79 79 80 81 82 83 83 84 84 86 86 86 86 85 85 85 83 83 81 81 80 80 79 79 78 78 77 77 76 75 75 75 76 76 76 75 75 74 74 73 72 73 73 73 73 73 72 72 71 71 71 72 71 71 71 71 71 72 73 74 75 75 76 77 78 78 79 80 81 81 81 81 81 80 80 79 78 77 76 75 74 74 73 73 73 73 73 73 74 75 76 76 77 78 79 80 80 81 81 82 82 83 83 83 83 83 83 83 83 82 81 80 79 79 78 77 77 76 75 75 74 73 72 72 72 71 70 70 70 70 70 70 70 70 70 70 71 71 71 72 73 74 74 76 76 77 78 79 79 80 81 81 81 82 82 83 84 84 84 84 84 85 86 87 87 87 87 87 87 88 88 88 88 88 88 89 89 89 88 88 88 87 87 88 88 88 88 88 88 87 87 86 84 84 83 82 82 80 79 79 78 78 76 75 73 72 70 68 66 64 62 60 58 56 55 54 52 52 51 50 51 51 51 52 53 55 56 59 61
40 41 42 43 43 44 45 46 46 48 50 50 51 53 54 54 55 56 56 57 57 57 57 57 57 57 57 57 57 57 58 58 58 58 59 59 59 59 60 60 60 61 60 61 62 62 63 63 63 63 63 63 63 63 64 64 64 64 64 64 65 64 64 64 64 64 64 64 64 64 64 64 64 64 64 64 64 64 66 66 66 67 67 67 68 69 70 71 72 72 73 74 74 74 75 76 77 77 78 79 80 80 80 80 80 80 80 80 80 80 79 78 78 78 77 76 75 74 74 74 74 74 73 72 72 72 71 71 71 71 71 71 71 72 72 71 72 72 72 72 72 72 72 72 72 72 72 72 72 72 72 73 73 73 73 73 73 73 73 73 73 73 73 73 72 72 72 73 72 71 72 71 71 71 71 71 72 72 72 72 72 72 72 72 72 72 72 72 72 72 72 72 73 73 73 73 74 74 74 75 75 76 76 76 77 78 78 78 78 78 78 78 78 78 78 78 78 78 78 78 78 78 78 78 79 78 78 78 79 79 79 79 79 79 79 79 78 79 79 78 77 77 78 78 78 78 78 78 78 79 79 79 79 79 79 79 79 79 79 79 80 80 80 80 80 80 80 80 80 79 78 79 79 79 79 79 79 80 80 81 82 83 84 84 84 85 85 85 85 85 85 84 84 83 82 81 80 80 80 79 78 78 77 77 77 76 76 76 77 77 77 76 76 75 75 74 73 73 73 73 73 73 72 72 72 72 72 72 71 72 72 72 72 72 73 74 75 75 76 77 78 79 79 80 80 81 81 81 81 81 80 79 78 77 77 74 74 73 73 73 73 73 73 73 74 75 76 77 77 78 79 79 80 81 81 82 82 83 83 83 83 83 83 84 83 82 82 81 80 80 79 78 78 76 75 75 74 73 73 73 73 72 71 71 71 71 71 71 71 71 71 70 71 71 72 73 74 75 75 76 76 77 78 79 80 80 81 81 81 81 82 83 84 84 84 85 85 86 86 87 88 88 88 88 88 89 89 89 89 88 89 89 89 89 89 89 89 88 88 89 89 89 89 89 88 87 87 86 84 84 83 82 82 80 80 79 78 78 77 76 74 73 71 69 67 65 63 58 56 55 54 53 53 52 51 51 52 52 53 54 55 56 59 61 64
40 40 42 43 43 44 46 47 47 49 50 51 51 52 54 55 56 56 56 57 57 57 57 57 57 57 57 57 58 58 58 58 58 58 59 59 59 59 60 60 60 61 61 61 62 62 63 63 63 63 63 64 64 64 64 64 64 64 64 64 64 63 63 64 64 64 64 64 64 63 63 63 64 64 64 64 64 64 65 65 65 66 66 66 67 68 69 70 70 71 72 73 74 74 75 76 77 77 78 78 78 79 79 79 80 80 80 80 80 80 79 78 78 78 77 76 75 74 75 74 74 74 73 73 72 72 71 71 71 71 71 71 71 71 71 71 71 71 71 72 72 72 72 71 71 71 71 72 72 72 72 72 72 72 73 73 73 73 73 72 73 73 73 73 73 72 72 73 72 71 71 71 71 71 71 71 71 71 71 72 72 72 72 72 72 72 72 72 72 73 73 73 73 73 73 73 74 74 75 75 75 76 76 76 77 78 78 78 78 78 78 78 79 78 78 78 78 78 78 78 78 78 78 78 79 79 79 79 79 79 79 79 79 79 79 79 78 78 78 78 77 77 78 78 78 78 78 78 78 78 78 78 78 78 78 79 79 79 79 80 80 80 80 80 80 81 81 80 80 79 79 79 79 79 79 79 79 80 80 81 81 82 82 83 83 84 84 84 84 84 84 84 83 82 82 81 80 80 80 79 78 78 78 78 77 77 77 77 78 78 78 77 77 75 75 74 73 73 73 73 73 73 72 72 73 72 72 72 73 73 73 72 72 72 73 74 75 76 76 77 78 79 80 80 81 81 81 82 82 81 80 79 77 77 75 75 74 73 73 73 73 74 74 74 74 75 76 77 78 78 79 79 80 81 82 82 83 83 83 84 84 84 84 84 84 83 83 82 80 80 79 78 78 77 76 76 75 74 74 74 74 73 72 72 72 72 71 71 71 71 71 71 72 72 72 73 74 75 76 77 77 77 78 78 79 80 81 81 81 81 82 82 83 83 84 85 85 86 87 87 88 89 89 89 89 89 89 89 89 90 90 90 90 90 90 90 90 89 89 90 90 90 89 89 88 87 87 86 85 84 83 83 82 81 81 80 79 79 77 75 74 72 69 67 65 63 61 59 57 56 55 54 54 53 53 53 53 54 55 56 57 56 59 61 64
40 41 42 43 44 45 46 47 48 49 51 52 52 53 55 55 55 56 56 57 57 57 57 57 57 58 58 58 58 58 58 58 58 58 59 59 59 60 60 60 60 61 61 61 63 63 63 64 64 64 64 64 64 64 64 64 64 64 64 64 64 64 64 63 63 63 63 63 63 63 63 63 64 64 64 64 64 64 65 65 65 66 66 66 67 67 68 70 70 71 72 73 74 74 75 75 76 76 77 78 78 79 79 79 79 79 80 80 80 80 79 79 78 78 77 77 76 75 75 74 74 74 74 73 72 72 71 71 71 70 70 70 70 71 71 70 71 71 71 71 71 71 72 71 71 71 71 71 72 72 72 72 72 72 72 72 72 72 72 72 73 73 73 73 73 72 72 72 72 72 72 71 71 71 71 71 71 71 71 72 72 72 72 72 72 73 73 73 73 73 73 73 73 73 73 73 74 74 75 75 75 76 76 77 77 78 78 78 79 79 79 79 79 78 78 78 78 78 78 78 79 79 79 79 79 79 79 79 79 79 79 79 79 79 79 79 78 78 77 78 78 78 78 78 78 78 78 78 78 78 78 78 78 78 78 79 79 79 80 80 80 80 80 80 80 80 80 80 80 80 79 79 79 79 79 79 79 80 80 81 82 82 82 83 83 84 84 84 84 84 84 84 83 82 82 81 81 81 80 79 79 79 79 79 78 78 78 78 78 78 78 77 77 76 76 75 74 74 73 73 73 73 73 73 73 73 73 72 73 73 73 73 73 73 74 74 75 76 77 77 78 79 80 81 81 81 81 82 82 80 80 78 78 77 75 75 74 73 73 73 73 73 73 74 74 75 76 77 78 79 79 79 80 81 82 83 84 84 85 85 85 85 85 84 84 83 83 82 81 81 80 79 79 78 77 77 76 75 75 75 75 73 72 72 72 72 72 72 72 72 72 72 72 72 73 74 74 75 76 77 77 77 78 78 79 79 80 80 80 81 82 82 83 84 85 85 86 87 88 88 89 89 89 89 90 90 90 90 90 91 91 91 91 91 91 91 91 90 89 90 90 90 89 89 88 88 87 86 86 84 84 83 82 82 81 80 80 78 77 75 74 72 70 68 66 64 62 60 59 57 57 56 55 55 55 53 53 54 55 56 57 59 61 63 67
41 41 42 43 44 45 46 48 49 50 52 52 52 53 55 56 56 57 57 57 57 58 58 58 58 58 58 58 58 58 58 58 58 58 59 59 59 60 60 60 61 61 61 61 62 63 64 64 64 64 64 64 64 64 64 64 64 64 64 64 64 63 63 63 63 63 63 63 63 63 63 63 63 63 63 63 63 63 64 64 64 65 65 66 67 67 68 68 70 71 72 72 73 73 74 75 76 76 77 77 78 79 79 79 79 79 79 79 79 79 80 79 78 78 78 77 76 76 75 74 74 74 74 73 72 72 71 70 70 70 70 70 70 70 70 70 70 70 71 71 71 71 71 71 71 71 71 71 71 71 71 71 71 71 72 72 72 72 72 72 72 73 73 73 72 71 72 72 72 71 71 71 71 71 71 71 71 71 71 72 72 72 73 73 73 73 73 73 73 73 73 73 73 73 73 73 74 74 75 75 75 76 76 77 78 79 79 79 79 79 79 79 79 78 78 78 78 78 79 79 79 79 79 79 79 79 79 79 79 79 79 79 79 79 79 78 78 78 78 78 78 78 78 78 78 78 78 78 78 78 78 78 79 79 79 79 79 79 80 80 80 80 80 80 80 80 80 80 80 80 79 79 79 79 79 79 79 80 80 80 81 81 81 82 82 84 84 84 84 84 84 83 83 82 81 81 81 81 80 79 79 79 79 79 78 78 78 78 79 79 79 78 77 77 76 75 75 74 73 73 74 74 73 73 73 73 73 73 74 74 74 74 74 74 75 75 76 76 77 78 78 79 80 81 81 82 82 82 81 81 80 78 78 77 76 75 74 74 73 73 73 73 73 74 75 76 76 77 78 79 80 81 81 82 83 83 84 85 85 85 85 85 85 85 85 84 84 83 82 82 81 80 80 79 78 78 76 75 75 75 74 73 73 73 73 73 73 73 73 73 73 73 73 73 74 74 74 75 76 77 77 77 78 78 79 79 80 80 81 81 81 82 83 84 85 85 86 87 88 89 89 89 90 90 91 91 91 91 91 92 92 92 92 91 91 91 91 90 90 91 91 90 89 89 89 88 87 87 86 85 85 83 82 82 81 80 80 79 78 76 75 73 71 70 68 66 63 62 61 59 57 56 55 55 55 55 55 56 57 57 61 63 66 70 78
41 42 43 44 45 46 46 46 49 50 52 53 53 54 56 57 57 58 58 58 58 58 58 58 58 58 58 58 58 58 58 58 58 58 59 60 60 60 60 60 61 61 62 61 62 63 63 64 64 64 64 64 64 64 64 64 64 65 65 65 65 63 63 63 63 63 64 63 63 62 62 62 63 63 63 63 63 63 64 64 64 65 65 65 66 66 67 68 69 70 71 72 72 73 74 74 75 76 77 77 78 78 78 79 79 79 79 79 79 79 79 78 79 78 77 77 76 76 75 74 74 74 73 73 72 71 71 70 70 69 69 69 70 70 70 70 70 70 71 71 71 71 71 70 70 70 70 70 71 71 71 71 71 71 72 72 72 72 72 71 72 72 72 72 72 71 71 71 71 71 71 71 71 71 71 71 72 72 72 73 73 73 73 73 73 73 73 73 73 73 73 73 73 73 73 74 74 74 75 75 75 76 76 77 78 79 79 79 79 79 79 79 79 78 79 79 78 78 78 78 78 78 78 79 79 79 79 79 79 79 79 78 78 78 78 78 77 77 77 77 77 77 78 78 78 78 78 78 79 79 79 79 79 79 79 79 79 79 80 80 80 80 80 80 80 80 80 80 80 80 79 79 79 79 80 80 81 81 81 81 81 81 81 82 82 83 83 83 83 83 84 83 83 82 82 81 81 80 80 79 79 79 79 79 79 79 79 79 79 79 79 78 78 77 76 76 75 74 73 74 74 74 74 74 74 74 74 74 75 75 75 75 75 75 76 75 76 76 77 78 79 79 80 81 82 82 82 82 81 81 80 79 78 77 76 75 74 74 73 73 73 73 73 74 75 76 77 77 78 79 80 81 82 82 83 83 84 85 85 85 85 85 85 85 85 85 85 84 83 83 82 80 80 79 78 77 76 76 76 76 75 74 74 74 74 74 74 74 74 74 73 73 73 73 74 74 75 75 76 77 76 76 77 78 78 79 79 79 80 81 81 82 83 84 85 86 86 87 88 89 90 90 91 91 92 92 92 91 91 92 92 92 92 92 91 91 91 91 91 91 90 90 90 89 89 89 87 87 86 85 85 84 83 83 82 81 81 80 79 77 76 74 72 71 69 66 63 62 61 59 58 57 56 57 57 57 58 58 59 61 62 65 67 70 78
41 43 43 44 45 46 46 47 49 50 53 54 54 55 57 58 58 59 59 59 58 58 58 58 58 58 58 58 58 58 58 59 59 59 59 60 61 61 60 60 61 61 62 62 62 63 64 64 64 64 64 64 64 64 65 65 64 65 65 65 65 64 63 64 64 63 63 62 62 62 62 62 62 62 63 63 63 63 64 64 64 65 65 65 66 66 67 67 68 69 70 71 72 73 74 74 75 75 76 77 77 78 78 78 78 78 78 78 78 79 79 78 79 78 77 77 76 75 75 75 73 73 73 72 71 71 70 69 69 69 69 69 70 70 70 69 70 70 70 70 70 70 70 70 70 70 70 70 71 71 71 71 71 71 71 71 71 71 71 71 72 72 72 72 72 71 71 71 71 71 71 71 72 72 72 72 72 72 72 73 73 73 73 73 73 73 73 73 73 73 73 74 74 74 74 74 75 75 76 76 76 77 76 77 78 79 79 79 79 79 79 79 79 79 79 79 78 78 78 78 78 78 78 79 79 79 79 79 79 78 78 78 78 78 78 77 77 77 77 77 77 77 78 78 78 78 78 78 78 78 78 78 78 78 78 79 79 79 80 80 80 80 80 80 81 81 81 80 80 80 80 80 80 80 80 80 81 81 81 81 81 81 81 82 82 83 83 83 83 83 83 83 83 83 82 81 81 80 80 80 80 80 80 80 80 80 80 80 80 80 79 79 78 77 76 76 75 74 74 75 75 75 75 75 75 75 75 75 76 76 76 75 75 75 76 76 77 77 78 79 80 80 81 81 82 82 82 82 82 81 80 79 78 77 76 75 75 74 73 73 73 74 74 74 76 77 77 78 78 79 80 81 82 82 83 83 84 85 85 85 85 85 85 85 86 86 85 84 83 83 81 81 80 79 79 78 77 77 77 77 76 75 75 75 75 74 74 74 74 74 74 74 74 74 75 75 76 76 77 77 77 78 78 78 78 79 79 79 80 81 82 83 83 84 85 86 87 87 88 89 90 90 91 91 92 92 92 92 93 93 92 92 92 91 92 92 91 91 91 91 90 90 90 89 89 89 88 88 87 86 86 85 84 84 83 82 82 81 80 78 76 74 71 69 67 65 64 62 61 60 60 59 58 58 58 58 59 60 61 61 62 65 67 70 83
41 43 43 44 45 46 47 48 50 51 52 54 55 56 58 59 58 59 59 59 59 59 59 59 59 59 59 59 59 59 59 60 60 60 59 60 61 61 61 61 62 62 63 63 63 64 65 65 65 65 65 65 64 64 65 65 65 65 65 65 65 64 64 64 63 63 63 62 62 61 62 62 62 62 62 62 62 62 63 63 63 64 64 64 65 65 66 67 68 69 70 71 72 72 73 74 75 75 76 77 77 77 77 78 78 78 78 78 78 79 79 78 78 77 77 77 76 75 76 75 74 74 73 72 71 71 70 69 69 69 69 69 69 69 69 69 69 70 70 70 70 70 70 70 70 70 70 70 70 70 70 70 70 71 71 71 71 71 71 70 71 72 72 72 72 71 71 71 71 72 72 72 72 72 72 72 72 72 72 73 73 73 73 73 73 73 73 73 74 74 74 74 74 74 74 74 75 75 76 76 76 77 77 77 78 79 79 79 79 79 79 80 80 79 79 79 78 78 78 78 79 79 79 79 79 79 79 79 79 79 79 79 79 78 78 77 77 77 77 77 77 77 77 77 77 77 77 77 78 78 78 78 78 78 78 79 79 80 80 80 81 81 81 81 81 81 81 80 80 80 80 80 80 80 80 80 81 81 81 81 81 81 81 82 82 82 82 82 82 83 83 83 83 83 81 81 81 81 80 80 80 80 80 80 81 81 81 80 80 80 79 79 78 77 77 75 75 75 75 75 75 75 75 75 76 76 75 75 76 76 76 76 76 76 77 77 78 79 79 80 80 81 82 82 82 82 82 82 82 81 80 79 78 78 76 76 75 74 74 74 74 74 75 75 76 77 77 78 79 79 80 80 81 82 83 84 84 85 85 85 85 85 85 85 86 86 84 84 84 83 82 82 81 80 80 79 78 78 78 78 76 75 75 75 75 75 75 75 75 75 75 75 75 76 76 76 77 77 78 77 77 78 78 78 78 79 79 79 80 80 81 82 83 84 84 85 86 87 88 89 90 90 92 92 93 93 93 93 93 93 92 92 92 92 92 92 91 91 91 91 90 90 90 89 89 89 89 89 88 87 87 86 85 85 83 82 81 80 78 77 75 73 72 70 68 67 65 64 63 62 61 61 60 59 58 58 59 60 61 62 64 66 69 71 87
40 41 44 45 45 46 48 49 51 52 53 54 55 55 58 59 59 60 60 60 60 60 60 60 60 60 60 60 60 60 59 60 60 60 60 61 62 62 62 62 63 63 64 64 64 65 66 66 65 65 65 65 65 65 66 66 66 66 66 66 65 65 64 64 63 63 63 62 62 61 61 62 62 62 62 62 62 62 62 63 63 64 64 64 65 65 66 67 68 69 69 70 71 72 73 74 74 74 75 76 76 77 77 78 78 78 78 78 78 78 78 78 78 77 76 76 76 76 76 75 74 74 73 72 72 71 70 70 69 68 68 69 69 69 69 69 68 69 70 70 70 70 70 69 69 69 69 70 70 70 70 70 70 70 70 70 71 71 71 70 71 71 71 71 71 71 72 72 72 72 72 72 72 72 72 72 72 72 72 73 73 73 73 73 74 74 74 74 74 74 74 74 74 74 74 74 75 75 76 76 76 77 77 78 79 79 79 80 80 80 80 80 80 79 79 78 78 79 79 79 79 79 79 79 79 79 79 79 79 79 79 79 79 78 77 77 77 77 77 77 77 77 77 77 78 78 78 77 78 78 78 78 78 78 79 80 80 80 80 80 80 80 80 80 80 80 81 80 80 80 80 80 80 80 80 80 81 81 81 81 81 81 82 82 82 82 82 82 82 83 83 83 83 82 81 82 82 81 80 80 80 81 81 80 81 81 81 81 81 80 79 79 78 77 76 75 76 76 76 76 76 75 75 75 76 76 76 76 77 77 77 77 77 77 78 79 79 80 80 80 80 81 82 82 82 83 83 83 82 81 81 79 79 78 77 76 75 75 74 74 74 74 75 75 76 76 77 78 79 80 80 80 81 81 82 83 84 85 85 85 85 86 86 86 86 85 85 85 85 84 83 83 82 81 81 79 78 78 78 78 77 76 76 76 76 76 76 76 76 76 76 76 76 77 76 76 77 77 78 77 77 77 77 77 77 78 79 79 80 81 81 82 83 84 84 85 87 88 89 89 90 91 92 93 93 93 93 93 93 93 93 92 92 92 92 92 91 91 91 91 91 90 90 90 90 90 89 88 88 87 86 85 85 84 83 83 82 81 79 78 76 74 73 71 70 69 67 66 64 62 61 61 60 59 59 59 60 61 63 64 66 70 73 91 93
40 42 43 44 46 46 48 49 51 52 53 54 55 56 57 59 60 61 61 61 61 61 61 61 61 61 60 60 60 60 60 61 61 61 61 62 63 63 63 63 63 64 65 65 64 65 66 66 66 66 66 66 66 66 67 67 67 67 67 66 66 65 64 64 63 63 62 61 62 61 60 60 60 60 61 61 61 61 62 62 63 64 64 64 65 65 66 66 67 68 69 70 71 71 71 73 74 75 75 76 76 77 77 77 77 77 77 77 77 78 78 77 77 76 76 76 76 76 76 75 75 74 73 72 71 71 70 69 69 68 68 67 67 67 69 69 68 69 69 69 69 69 69 69 69 69 69 69 69 69 69 69 70 70 70 70 70 70 70 70 71 71 71 71 71 71 71 71 71 71 72 72 72 72 72 72 72 72 73 73 73 73 74 74 74 74 74 74 74 74 74 74 74 74 74 74 75 75 76 76 76 77 77 78 79 80 79 80 80 80 80 80 79 79 79 79 79 79 79 79 79 79 79 79 79 79 79 79 79 79 79 79 79 78 78 77 77 77 77 77 77 77 77 77 78 78 78 78 78 78 78 78 78 78 79 80 80 80 80 80 80 80 80 80 80 80 80 81 81 81 80 80 80 80 80 81 81 81 81 82 81 81 82 82 82 82 83 83 83 83 83 83 82 82 82 82 82 81 80 80 80 81 81 81 81 81 81 81 81 80 80 78 78 77 76 76 76 76 76 76 76 76 76 76 76 76 77 77 78 78 78 79 79 79 79 79 79 80 80 80 81 82 82 82 83 83 83 83 82 82 81 80 79 78 77 75 75 74 74 74 74 74 75 75 75 76 77 78 78 79 79 79 81 81 82 83 84 85 86 86 86 86 86 86 86 85 85 85 85 84 83 83 82 81 81 80 79 79 79 79 78 77 78 78 78 78 78 78 77 76 76 76 76 77 77 77 77 77 78 77 77 77 77 77 78 78 78 79 80 81 81 83 84 85 86 86 87 88 89 90 91 91 92 93 93 93 93 93 93 93 93 93 93 92 92 92 91 91 91 91 90 90 90 90 90 89 89 88 88 87 87 86 86 85 84 84 82 82 80 79 77 75 74 72 70 69 67 66 64 63 62 62 61 60 60 61 62 64 65 67 70 72 73 91 93
40 42 43 44 45 46 48 49 51 53 54 55 56 57 58 60 60 61 62 62 62 62 61 61 61 61 61 61 61 61 61 62 62 62 62 63 64 64 64 64 63 64 64 65 65 66 67 67 67 67 67 67 67 67 67 68 68 67 67 66 66 65 64 64 64 63 62 62 61 60 60 60 60 60 60 61 61 61 62 62 62 63 63 63 64 64 65 66 67 68 68 69 70 71 71 72 74 75 76 76 76 76 77 77 77 77 77 77 77 77 77 77 77 76 76 76 76 75 75 75 74 73 73 72 71 70 69 69 68 68 68 67 67 67 68 68 68 68 69 69 69 69 69 68 68 68 68 69 69 69 69 69 69 70 70 70 70 70 70 69 70 70 71 71 71 71 71 71 71 71 71 71 72 72 72 73 73 73 73 74 74 74 74 75 74 74 74 74 74 74 74 74 74 74 75 75 75 76 76 76 76 77 77 78 79 80 80 80 80 80 80 80 79 79 79 79 79 79 79 79 79 79 79 79 79 79 80 80 80 79 79 79 79 79 77 77 77 78 77 77 77 77 77 77 77 77 77 77 77 77 77 78 78 79 79 79 80 80 80 80 80 80 80 81 81 81 81 81 81 81 80 80 81 81 81 81 81 81 81 82 82 82 82 83 83 83 83 83 83 82 82 83 83 82 82 82 82 81 81 81 81 81 81 81 81 81 81 81 81 81 80 79 78 77 76 76 76 76 76 76 76 76 76 76 77 77 78 78 79 79 79 79 79 79 79 80 80 81 81 81 82 82 82 82 83 83 83 83 82 82 81 80 78 77 76 75 75 74 74 74 74 74 75 75 75 76 76 78 78 79 79 79 80 81 82 83 84 85 85 86 86 86 86 86 86 85 85 85 85 84 84 83 83 82 82 81 80 80 80 80 79 79 79 79 78 78 78 78 77 77 77 77 77 77 77 77 77 77 78 77 77 77 77 77 78 78 79 79 80 81 82 83 83 84 86 87 87 88 89 90 91 91 92 93 93 93 93 93 93 93 93 93 93 92 92 92 91 91 91 91 90 90 90 90 90 89 89 89 88 88 88 87 87 86 85 85 83 83 81 79 77 75 74 72 71 68 67 65 64 63 63 62 61 61 61 62 63 64 65 67 70 72 74 92 95
40 42 43 44 45 46 47 48 51 53 54 56 57 58 59 61 61 62 62 62 62 62 62 62 62 62 62 62 62 62 62 62 63 63 63 63 64 64 64 64 64 65 65 66 66 66 67 67 67 67 67 68 68 67 67 68 68 67 67 66 66 65 64 65 64 63 63 62 61 61 59 60 60 60 60 60 60 60 61 62 62 62 63 63 64 64 65 66 66 68 68 69 70 70 71 72 73 74 75 75 75 76 76 76 76 76 76 77 77 77 77 77 77 77 76 76 76 76 76 75 74 74 73 72 72 70 69 69 68 67 67 67 67 67 67 67 67 68 68 68 68 68 68 68 68 68 68 69 68 68 68 68 68 68 68 68 69 69 69 69 70 70 71 71 71 71 71 71 71 72 72 72 72 73 73 73 73 73 73 74 74 74 74 75 75 75 75 75 75 75 75 75 75 75 76 76 76 76 76 76 76 77 77 78 78 79 79 79 79 79 80 80 79 79 79 79 79 79 79 79 79 79 80 80 80 80 80 80 80 79 79 79 80 79 77 77 77 78 77 76 76 76 76 76 77 77 77 77 77 77 77 77 78 79 79 79 80 80 80 80 81 81 81 81 81 81 81 81 81 81 80 80 81 81 81 81 82 82 82 82 82 82 82 83 83 83 83 83 83 82 82 83 83 83 82 82 82 82 82 82 82 82 82 82 82 82 82 81 81 81 80 79 79 78 77 77 76 76 76 76 76 76 77 77 78 77 78 78 79 79 80 80 80 81 81 81 81 82 82 82 82 82 82 82 83 83 83 83 83 81 80 79 78 77 76 76 75 74 74 74 75 75 75 75 75 76 76 77 78 79 79 79 81 81 81 82 83 84 85 86 86 86 86 86 86 86 85 85 85 85 84 83 83 83 83 81 81 81 81 80 79 79 79 79 80 80 80 79 78 78 78 78 78 78 78 78 77 78 78 77 77 77 77 77 77 78 78 79 80 80 81 82 83 84 85 86 87 88 89 90 91 92 92 93 93 93 93 94 93 92 92 92 92 91 91 92 91 91 91 91 91 91 90 90 90 90 90 89 88 88 88 88 87 86 85 85 83 83 80 78 76 75 73 72 71 69 68 66 65 64 64 63 61 61 61 62 63 64 65 68 70 72 74 94 97
41 42 44 44 45 46 47 48 50 52 55 56 57 59 59 61 61 62 63 63 63 63 63 63 63 63 63 63 63 63 63 62 62 63 63 64 65 65 65 65 65 66 66 67 67 67 67 67 68 67 67 68 68 68 68 68 68 68 67 67 66 65 65 64 63 63 62 62 61 61 60 59 59 59 60 60 60 60 61 61 61 62 63 63 63 64 65 66 66 67 68 69 70 70 70 71 72 73 75 75 75 75 75 76 76 76 76 76 77 77 77 77 76 76 76 76 76 76 76 75 75 74 73 72 72 71 69 68 68 67 67 66 66 66 67 67 67 67 68 68 68 68 68 68 68 68 67 67 67 67 67 67 67 67 67 67 67 69 69 69 70 70 71 71 71 71 71 71 71 71 71 72 72 73 73 73 73 73 73 74 74 74 75 75 75 75 75 75 75 75 75 76 76 75 76 76 76 76 77 77 77 78 78 78 78 79 79 79 79 79 79 80 79 79 79 79 79 79 79 80 80 80 80 80 80 80 80 80 80 79 79 79 80 78 78 78 78 78 77 76 77 77 76 76 76 76 76 76 77 77 77 77 77 78 79 79 80 80 81 81 81 81 81 81 81 81 81 81 81 81 81 81 81 81 81 81 82 82 82 82 82 82 82 83 83 83 83 83 83 83 83 83 83 82 82 82 82 82 82 82 82 82 82 82 82 82 82 82 82 81 80 80 79 78 78 77 77 77 77 77 77 76 77 77 78 78 79 80 80 80 81 81 81 82 82 82 82 82 82 82 82 82 82 82 83 83 83 83 82 81 80 79 79 77 77 76 75 75 74 74 75 75 75 76 76 76 76 77 77 78 78 78 79 80 80 81 83 84 85 86 86 86 86 86 86 85 85 85 85 85 84 83 84 83 82 81 81 81 81 81 81 81 81 81 81 81 81 80 79 79 79 79 79 78 78 78 78 78 78 77 77 77 77 77 77 78 78 79 80 81 82 82 83 84 85 86 87 88 89 89 90 91 93 93 93 93 93 93 92 92 92 92 92 91 91 91 91 91 91 90 90 90 90 90 90 90 90 89 89 88 88 87 86 86 85 84 84 82 81 79 77 76 74 73 72 70 69 66 65 64 64 63 62 62 62 62 63 64 66 68 70 72 95 98 100
40 42 43 44 45 46 47 49 50 52 53 55 57 59 60 62 62 63 64 64 64 64 64 64 64 64 64 63 63 63 63 63 63 64 64 64 65 66 66 66 66 66 67 67 67 67 67 67 68 68 68 68 68 68 68 68 68 68 68 68 66 66 65 64 63 63 62 61 61 60 59 59 59 59 59 59 59 59 60 61 61 62 63 63 63 63 65 66 67 67 67 68 69 70 71 72 72 72 73 75 75 75 75 75 75 75 75 75 75 75 75 76 76 76 76 76 76 76 76 75 75 74 73 73 71 70 70 68 68 67 66 66 66 66 66 67 67 67 68 68 68 68 68 67 67 67 67 66 66 66 66 66 66 67 67 67 67 68 68 68 69 69 70 70 70 70 70 70 70 71 71 72 72 73 73 73 73 73 73 74 74 74 75 75 75 75 75 76 76 75 75 76 76 76 76 76 76 76 77 77 77 78 78 78 78 78 78 79 79 79 79 79 79 79 79 79 80 80 80 80 80 80 80 80 80 80 80 80 80 80 80 80 80 78 78 78 78 78 77 77 77 77 76 76 76 76 76 76 76 76 77 77 77 78 78 78 79 79 80 80 80 81 81 81 81 81 81 81 81 81 81 81 81 81 81 81 82 82 82 82 82 82 82 83 83 83 83 83 83 83 83 83 83 82 83 83 83 82 82 82 82 82 82 82 82 82 83 83 82 81 81 80 79 79 78 78 77 77 77 77 77 77 78 78 79 80 80 81 81 81 82 82 82 83 82 82 82 82 82 82 82 83 83 83 84 84 84 83 82 82 80 80 79 77 77 76 75 75 75 74 74 74 75 75 75 75 75 75 75 76 76 78 79 80 80 81 82 83 83 84 84 84 85 85 85 85 85 85 85 84 83 84 84 83 83 82 82 82 82 82 82 82 82 82 82 82 82 81 79 79 79 79 79 78 78 78 78 79 78 77 77 77 77 78 78 78 79 79 80 81 82 82 83 84 86 86 87 89 90 91 91 91 92 92 92 93 93 93 92 92 92 92 91 91 91 91 91 90 90 90 90 90 90 90 90 90 89 89 89 89 88 87 87 86 85 85 84 83 82 80 78 77 74 73 72 70 69 67 66 65 65 64 63 63 63 63 64 66 67 69 71 73 95 98 100
39 39 43 43 45 47 47 49 50 52 53 55 56 60 61 63 63 64 65 65 65 65 65 64 64 64 64 64 64 64 64 64 64 65 65 65 66 66 66 67 67 66 67 67 67 67 68 68 68 68 68 68 68 68 68 68 68 68 68 68 67 66 65 64 64 62 62 61 60 60 59 58 58 58 59 59 59 59 60 61 61 62 63 63 63 64 64 66 67 67 67 68 69 69 70 72 72 72 73 74 74 74 74 74 75 75 75 75 75 75 75 75 76 76 76 76 76 76 75 75 74 73 73 72 71 70 69 69 68 67 66 66 66 66 66 66 66 67 67 67 67 67 67 67 67 66 66 65 66 66 66 66 66 66 66 66 66 67 67 68 69 69 70 70 70 70 70 70 70 71 71 72 72 73 73 73 73 73 74 74 74 74 75 75 75 75 75 76 76 76 76 76 76 76 76 76 77 77 77 77 77 78 78 78 78 78 78 78 79 79 79 79 79 80 80 80 80 80 80 80 80 80 80 80 80 80 80 80 80 80 80 80 79 79 78 78 78 78 78 77 77 77 76 76 76 76 76 77 77 77 77 77 77 77 78 78 79 79 80 80 80 81 81 81 81 81 82 82 82 81 81 81 81 81 81 81 82 82 82 82 82 82 83 83 84 84 84 84 83 83 83 83 83 82 83 83 83 82 82 82 82 82 82 83 83 83 83 83 82 82 82 81 79 79 78 78 78 78 78 78 78 78 79 80 80 81 81 82 82 82 82 82 82 83 83 82 82 82 83 83 83 83 83 84 83 83 83 83 82 82 80 80 79 78 77 76 75 74 74 73 74 74 74 74 74 73 73 75 75 76 76 76 77 78 78 79 80 81 81 82 82 82 83 83 83 85 85 85 85 84 84 84 84 84 83 83 83 83 83 83 83 83 83 82 82 82 82 81 80 80 80 79 79 79 79 78 78 79 78 77 78 78 77 78 78 78 79 79 79 80 81 82 84 85 86 87 88 88 89 90 91 91 92 92 92 93 93 93 92 91 91 91 91 90 90 90 90 90 91 90 90 90 90 90 90 90 89 89 89 89 88 88 87 86 86 85 84 84 82 80 78 77 75 74 73 71 70 67 65 65 64 63 63 63 63 63 64 66 67 69 71 73 95 99 100
38 39 41 43 45 47 47 49 51 53 54 56 57 59 61 64 64 65 66 65 65 65 65 65 65 65 65 65 65 65 65 65 65 66 66 66 66 66 66 67 67 67 67 68 68 68 68 68 68 68 68 68 68 68 68 68 68 68 68 68 67 67 66 65 64 62 62 61 60 60 59 58 58 58 58 59 59 59 60 60 60 61 62 62 63 64 65 65 66 67 67 68 69 69 70 71 71 72 73 74 74 74 74 74 74 74 74 74 75 75 75 75 75 75 75 75 76 76 76 75 74 74 73 72 72 70 69 69 68 67 67 66 65 65 66 66 66 67 67 67 67 67 67 66 67 66 66 65 65 64 64 64 64 65 65 65 65 66 66 67 68 68 70 70 70 70 71 71 71 71 72 73 73 73 73 74 74 74 74 75 74 74 75 75 75 76 76 76 76 76 76 76 76 76 76 76 77 77 77 77 77 78 78 78 78 78 79 79 79 79 80 80 80 80 80 80 80 80 80 80 80 80 80 80 80 81 81 81 81 80 80 80 80 79 78 78 78 78 78 77 77 77 76 76 76 76 76 76 76 76 76 76 77 77 78 78 79 79 80 80 80 81 81 81 82 82 82 82 82 81 81 81 81 81 81 82 82 82 83 83 83 83 83 84 84 84 84 84 83 83 83 83 83 83 83 83 83 82 82 82 83 83 83 83 83 83 83 83 82 82 82 81 80 80 79 79 79 79 79 79 79 80 80 81 81 81 81 82 82 82 83 83 83 83 83 83 83 83 83 83 82 82 82 83 83 83 83 83 82 81 80 79 78 77 76 76 74 74 73 72 72 72 74 74 74 73 73 73 73 74 74 74 75 76 76 77 78 79 79 80 82 83 83 83 83 84 84 84 85 85 84 84 84 84 84 84 84 84 84 83 83 83 83 83 83 83 82 81 81 81 81 80 79 79 79 79 78 79 78 77 78 78 78 78 78 79 79 80 80 81 81 82 83 85 85 86 88 88 89 90 90 91 92 92 92 92 92 92 91 91 91 91 90 90 90 90 90 91 90 90 90 90 90 90 90 90 90 89 89 89 88 88 87 86 86 85 84 84 83 81 79 76 75 73 71 70 69 67 66 65 64 63 63 63 63 63 64 65 67 69 70 72 96 99 100
38 39 41 42 43 44 48 49 51 53 55 57 58 60 61 62 64 65 66 66 66 66 66 66 66 66 66 66 66 65 66 66 66 66 66 66 66 66 67 67 67 67 67 68 68 68 68 68 68 68 68 68 68 68 68 69 69 69 68 68 67 67 66 65 65 63 62 61 61 60 59 58 58 58 58 58 58 58 59 60 61 62 62 62 63 64 65 65 66 67 67 68 69 69 70 71 71 71 72 73 73 73 73 73 74 74 74 74 74 74 74 75 75 75 75 76 76 76 76 75 75 74 73 72 72 70 70 70 69 68 67 66 66 65 65 65 65 66 66 66 67 67 67 66 66 65 64 64 64 63 63 63 63 63 63 63 64 64 66 67 68 68 69 70 70 70 71 71 71 71 72 73 73 74 74 74 74 74 74 75 75 75 76 76 76 76 76 76 76 76 76 76 76 76 76 76 77 77 77 77 78 78 78 79 79 79 79 79 80 80 80 80 80 80 80 80 80 80 80 80 81 81 81 81 81 82 82 82 82 81 80 80 80 79 78 78 78 79 78 77 77 77 77 77 76 75 75 76 76 76 76 76 76 77 77 77 78 78 79 79 79 80 80 80 81 82 82 82 82 81 81 81 82 82 82 82 83 83 83 83 83 83 84 84 84 84 84 84 83 83 83 84 83 83 83 83 83 83 83 83 83 83 83 83 83 83 83 83 83 83 82 81 81 80 79 79 79 79 80 80 80 80 80 81 81 82 82 83 83 83 83 83 83 83 83 83 83 82 82 83 82 82 82 83 83 83 82 81 81 80 79 78 77 76 75 74 73 73 72 72 72 72 73 72 72 71 71 71 71 72 71 71 74 75 75 76 78 79 80 80 80 81 81 82 82 83 84 84 84 84 84 84 84 84 84 84 84 84 84 84 84 84 84 84 84 84 83 82 82 82 81 80 79 79 79 79 78 79 78 78 78 78 78 78 79 79 80 80 80 81 82 82 83 85 85 86 87 88 89 90 90 90 91 91 91 92 92 92 90 91 91 90 90 90 90 90 90 90 89 89 89 90 90 90 90 90 90 89 89 89 88 88 87 86 85 84 84 83 82 80 79 77 75 73 72 70 69 67 66 65 64 64 63 62 62 62 63 65 66 67 69 71 71 100 100
38 38 40 42 42 44 45 49 52 53 55 57 58 60 61 63 65 65 66 67 67 67 67 67 67 67 67 66 66 66 66 66 66 66 66 66 66 66 67 67 67 67 67 68 68 68 68 68 68 68 68 68 69 69 69 69 69 69 68 68 68 67 66 66 65 64 62 61 61 60 59 59 58 58 58 58 58 58 59 59 60 61 62 62 63 64 65 65 66 67 67 68 68 68 69 70 70 71 72 73 73 73 73 73 74 74 74 74 74 74 74 74 74 74 74 75 75 75 76 75 75 74 73 73 72 70 70 70 69 69 67 67 66 65 65 65 65 66 66 66 66 66 66 66 65 64 64 63 62 62 61 61 61 61 63 63 64 64 65 66 67 68 69 69 70 70 71 71 71 71 72 73 73 74 74 74 74 74 74 75 75 76 76 76 76 76 76 76 76 76 76 76 76 76 77 77 77 78 78 78 79 79 79 79 79 79 79 79 80 80 80 80 80 80 80 80 80 80 81 81 81 82 82 82 82 83 82 82 82 81 81 81 80 79 79 79 79 79 78 77 78 78 77 77 76 75 75 76 76 76 76 76 76 76 77 77 78 78 79 79 79 80 80 80 81 82 82 82 82 82 82 82 82 82 82 82 83 83 83 84 83 83 84 84 84 84 84 84 84 84 84 84 83 83 83 83 83 83 83 83 83 83 83 83 83 83 83 83 83 83 82 81 81 80 79 79 79 79 80 80 80 80 81 81 82 83 83 83 83 83 83 84 84 84 84 83 83 82 82 82 82 82 81 82 81 81 80 79 79 78 77 76 75 76 74 73 72 72 71 71 70 70 71 70 69 69 69 69 69 69 68 71 74 75 75 77 77 78 79 77 78 79 79 80 81 82 83 83 84 84 84 84 84 84 84 84 84 84 84 84 84 84 84 85 85 84 83 83 82 82 81 80 80 79 79 79 78 79 79 78 78 78 78 78 79 79 80 80 80 81 82 82 83 85 86 87 87 88 88 89 89 90 90 90 90 92 92 91 90 90 90 90 89 89 89 89 89 90 90 90 90 90 90 90 90 90 90 89 89 89 88 87 87 86 85 85 84 83 82 80 79 78 75 73 72 70 69 67 66 64 64 63 62 62 62 62 64 64 66 68 71 71 72 100 100
37 38 39 41 43 44 46 47 49 53 55 57 59 61 62 64 66 66 67 68 68 68 68 68 68 67 67 66 66 66 66 66 66 66 66 66 66 66 67 67 67 67 67 67 68 68 68 68 68 69 69 69 69 69 69 69 69 69 69 69 68 67 66 66 65 64 63 62 61 60 60 59 58 58 58 58 59 59 58 59 60 61 62 63 63 64 64 64 65 66 66 66 68 68 69 70 70 71 72 73 73 73 73 73 73 73 73 73 73 73 74 74 74 74 74 75 75 75 75 75 75 74 73 73 72 71 70 70 69 69 68 67 66 65 65 65 65 66 66 66 66 66 66 66 65 63 63 62 61 61 61 61 61 61 61 61 62 62 63 65 66 67 68 69 70 70 71 71 71 71 72 72 73 74 74 74 74 74 74 75 75 76 76 76 76 76 76 76 76 76 76 77 77 77 77 77 78 78 78 78 79 79 79 79 79 79 79 79 80 80 80 80 80 80 80 81 81 81 81 81 82 82 82 82 82 83 83 83 83 82 82 82 81 80 80 79 79 79 78 77 78 78 77 77 76 76 76 75 75 75 75 75 75 76 76 76 77 78 79 79 79 80 80 81 81 82 82 82 82 82 82 82 82 82 82 82 83 83 83 84 84 84 84 84 84 84 84 85 84 84 84 84 83 83 83 83 83 83 83 83 83 83 83 83 83 83 84 84 84 83 82 82 81 80 79 80 80 80 80 80 80 81 82 82 83 84 84 83 84 84 83 84 84 84 82 82 82 82 81 81 81 81 80 80 79 79 78 77 79 78 77 76 74 73 72 71 70 70 69 69 68 68 68 67 66 66 66 69 69 69 68 67 74 74 75 76 77 78 78 73 75 76 77 78 79 82 83 83 84 84 84 85 85 84 84 84 84 84 84 84 85 85 85 85 85 84 83 83 82 82 81 81 80 79 79 79 80 79 79 79 79 79 78 78 79 79 80 80 80 81 82 83 84 84 85 86 87 88 89 89 90 90 90 90 90 90 90 91 90 90 90 89 89 89 89 89 89 89 90 90 90 90 90 90 90 90 90 89 89 88 88 88 87 86 86 85 84 83 82 80 79 78 75 73 72 70 69 68 65 63 63 62 61 61 61 63 64 64 66 68 70 71 72 73 100
37 37 39 41 43 44 46 47 50 52 53 58 60 62 63 65 67 67 68 69 69 68 68 68 68 68 68 67 67 67 66 66 66 66 66 66 67 67 67 67 67 67 67 68 68 68 69 69 69 69 69 69 69 69 69 69 69 69 69 69 68 67 67 66 65 65 63 63 62 61 60 59 59 59 58 58 59 59 59 59 59 61 61 62 63 63 64 64 65 66 66 66 67 68 69 70 70 70 71 72 72 72 72 72 72 73 73 73 73 73 74 74 74 74 74 75 75 75 75 75 74 74 73 72 72 71 70 70 69 69 68 67 66 65 66 66 66 66 66 66 66 65 65 65 65 63 63 62 61 61 60 59 59 59 59 59 60 60 62 64 64 66 68 69 70 70 71 71 71 72 72 72 73 74 74 74 74 74 75 75 75 76 76 76 76 76 76 77 77 77 77 77 77 77 77 77 78 78 78 78 79 79 79 79 79 79 79 79 80 80 80 80 80 81 81 81 81 81 81 81 82 82 83 83 83 84 84 84 84 83 82 83 82 81 81 79 79 79 78 78 79 78 77 77 77 76 76 75 75 75 75 75 75 76 76 76 77 77 78 78 78 79 79 80 80 81 81 81 81 81 82 82 82 82 82 82 83 83 84 84 84 84 84 84 85 85 85 85 84 84 84 84 83 83 84 84 83 83 83 83 83 83 83 84 84 84 84 84 84 83 82 82 82 80 80 81 81 81 81 81 81 81 82 83 83 84 84 83 84 84 84 83 83 83 82 81 81 80 79 79 79 78 77 77 79 79 78 77 77 76 74 73 72 70 70 68 68 67 66 66 66 65 68 67 66 66 66 67 66 65 64 57 56 56 56 57 58 60 62 70 75 76 77 78 79 81 81 83 83 84 85 85 85 84 84 84 84 85 85 84 85 85 85 85 85 84 83 83 82 82 82 80 80 80 80 80 80 79 79 79 79 79 79 79 79 79 80 80 80 81 81 82 83 85 86 87 88 88 89 89 89 89 89 89 89 89 89 89 89 89 89 89 89 89 89 89 89 89 89 89 89 89 89 90 90 90 89 88 88 88 87 87 87 86 86 85 84 84 82 81 79 78 76 72 70 68 67 65 63 63 62 62 61 61 61 61 62 63 65 66 69 70 71 73 100
35 37 39 41 42 44 45 47 50 52 54 56 58 63 64 66 68 68 68 69 69 69 69 69 69 69 69 68 68 67 66 66 66 66 67 66 67 67 67 67 67 67 67 67 67 68 68 68 68 68 68 69 69 69 69 69 69 69 69 68 67 67 66 66 66 65 63 63 62 61 60 59 59 59 59 59 59 59 59 59 59 60 62 62 62 63 63 63 65 66 66 66 67 67 68 69 69 70 70 71 71 71 71 71 71 71 73 73 73 73 73 73 73 73 73 74 74 74 74 75 75 74 73 73 72 71 70 70 70 69 68 68 66 66 66 66 66 66 66 66 66 65 65 65 65 63 61 61 60 59 58 57 57 57 57 57 58 58 59 64 64 66 68 68 69 70 71 72 72 72 73 73 74 74 74 75 75 74 75 75 75 76 76 76 76 77 77 77 77 77 77 77 77 77 77 77 78 78 78 79 79 79 79 79 79 79 80 80 80 80 81 81 81 81 81 81 81 81 81 81 82 83 83 84 84 85 85 85 85 84 83 83 82 81 81 80 79 79 79 79 79 78 77 77 77 76 76 76 76 75 75 75 75 75 76 76 76 77 78 78 78 78 79 80 80 81 81 81 81 81 82 82 82 82 82 83 83 84 84 84 84 85 85 85 85 85 85 85 84 84 84 84 84 84 84 84 84 84 84 84 84 84 84 84 84 84 84 84 84 83 83 83 82 81 81 81 81 81 81 81 81 81 82 83 83 84 84 84 84 84 83 83 83 82 81 80 79 78 77 79 79 78 77 77 77 76 75 74 73 73 71 70 69 68 67 65 65 64 66 66 66 65 65 64 63 62 65 64 64 63 62 57 56 56 56 57 58 60 62 70 71 73 74 75 77 79 82 83 83 83 84 84 84 85 84 84 84 85 85 85 85 85 85 85 85 84 84 82 82 82 81 81 80 80 80 80 80 80 80 80 80 80 80 80 80 80 81 81 81 81 82 83 84 85 86 86 87 87 88 88 88 88 88 88 89 89 89 89 89 89 89 89 89 89 89 89 89 89 89 89 90 90 90 90 90 89 89 88 88 88 87 87 87 87 86 85 85 82 81 80 78 76 74 72 69 68 67 65 63 63 62 61 61 61 61 61 61 62 63 64 67 69 70 100 100
34 36 37 38 42 43 45 48 50 52 54 56 59 61 63 66 68 68 69 70 70 70 70 70 70 70 69 68 68 67 66 66 66 66 67 67 67 66 66 66 66 66 66 67 67 67 67 68 68 68 68 69 69 69 69 69 70 70 70 69 68 67 66 66 66 65 64 63 62 61 61 59 59 59 59 59 59 59 59 59 59 59 60 62 62 63 63 63 64 65 65 65 66 67 67 69 69 69 70 70 70 70 71 71 71 71 71 71 72 72 72 72 73 73 73 74 74 74 74 74 75 74 73 73 72 71 71 71 70 69 69 68 67 66 66 66 66 66 66 66 66 66 65 65 64 64 61 59 59 57 57 55 55 55 55 57 58 58 59 62 63 65 66 68 69 69 70 71 72 72 73 74 74 74 74 75 75 75 75 76 76 76 77 77 77 77 77 77 77 77 77 77 77 77 77 77 78 78 78 79 80 80 80 80 80 80 81 81 81 80 81 81 81 81 81 81 81 81 81 81 82 83 83 84 85 85 85 85 85 84 83 84 83 82 82 81 80 80 80 79 79 79 78 78 77 76 76 76 76 75 74 74 74 75 75 75 76 76 77 77 77 77 78 80 80 81 81 81 81 81 82 82 83 83 83 83 84 84 85 85 85 85 85 85 85 85 85 85 84 84 85 85 84 84 84 84 84 84 84 84 84 84 84 84 84 84 84 84 84 84 83 83 82 82 81 81 81 81 81 81 81 82 83 83 84 85 85 84 84 84 83 82 82 81 79 80 79 78 77 77 76 75 74 74 73 72 71 71 70 69 68 67 65 68 67 65 65 64 63 63 63 62 61 61 59 58 63 63 63 61 61 57 56 56 56 57 59 60 62 68 69 71 71 75 77 79 80 82 83 83 84 84 84 85 85 85 85 85 85 85 85 85 85 85 85 84 83 83 82 82 81 81 80 80 80 80 80 80 80 80 80 80 80 81 81 81 81 81 81 81 82 83 83 84 85 86 87 87 88 88 88 88 88 88 89 89 89 89 89 89 89 89 89 89 89 89 90 90 90 90 90 90 90 90 90 89 89 89 89 88 87 87 87 86 85 85 84 83 81 80 78 76 74 72 69 68 66 64 63 62 62 61 60 59 60 60 60 61 63 65 69 70 71 100 100
34 36 37 39 40 43 46 48 50 53 54 56 59 61 63 65 69 69 70 71 71 71 71 71 71 71 70 69 68 67 66 67 67 66 66 66 66 66 66 66 66 66 66 66 66 67 67 68 68 68 69 69 70 70 70 70 70 70 70 69 69 67 67 66 66 65 64 63 62 62 61 60 60 59 59 59 59 59 59 59 59 59 60 61 62 62 63 63 64 65 65 65 66 66 66 67 68 69 70 70 70 70 70 70 70 70 70 70 70 71 71 71 72 72 72 73 74 74 74 74 74 74 73 73 72 71 71 71 70 70 69 68 68 67 66 66 66 66 66 66 66 66 65 64 64 63 60 59 57 56 55 55 55 55 55 55 56 56 57 60 62 63 65 67 68 69 70 71 71 72 73 74 74 75 75 76 76 76 76 76 77 77 77 77 77 77 77 77 77 77 77 77 77 77 78 78 78 79 79 79 80 80 80 81 81 80 81 81 81 81 81 81 81 81 81 81 81 81 82 82 82 83 83 84 85 85 85 85 85 84 84 84 83 82 82 81 80 80 80 79 79 79 78 78 76 76 77 76 76 75 75 75 75 75 75 75 75 76 77 77 77 77 78 78 79 80 80 80 80 81 81 82 82 82 83 84 84 84 85 85 85 85 85 85 85 85 85 85 85 85 85 84 84 84 84 84 84 84 84 85 84 84 84 84 84 84 84 84 84 84 83 83 82 82 81 81 81 81 81 81 81 82 83 83 84 85 84 84 84 84 82 82 82 81 79 79 77 76 75 74 73 72 72 70 69 68 68 68 68 69 68 67 65 65 64 63 62 61 61 60 59 58 57 56 55 54 46 63 63 61 61 57 56 56 56 57 58 60 62 67 69 68 70 72 75 79 80 82 83 83 84 85 85 85 85 85 85 85 85 85 85 85 85 85 85 84 83 83 83 82 81 81 81 80 80 80 80 80 80 81 81 80 81 81 81 81 81 81 81 81 82 83 84 84 85 86 86 86 87 87 88 88 88 88 88 88 88 88 88 88 89 89 89 89 89 89 89 89 90 90 90 90 90 89 89 89 88 88 87 87 87 87 87 86 86 85 84 83 81 80 78 76 74 72 70 67 66 64 62 62 61 60 59 58 58 60 61 61 63 65 67 68 69 99 100
33 35 37 38 40 42 43 48 50 53 55 57 59 62 64 66 68 70 71 72 72 72 72 72 71 71 70 69 69 67 67 67 66 65 66 66 66 66 65 65 65 66 66 66 66 67 67 67 68 69 69 70 70 70 70 70 70 70 70 69 69 68 67 67 66 65 64 63 63 62 61 61 60 59 59 59 59 59 59 59 60 60 60 61 61 61 62 62 63 64 64 64 64 65 66 67 68 69 69 69 69 69 69 69 69 70 70 70 70 70 71 71 72 72 72 73 73 73 73 73 74 74 74 73 72 72 71 71 70 70 69 68 68 67 66 66 66 66 67 67 67 66 65 65 63 63 61 59 57 56 55 54 53 53 53 53 53 54 55 57 60 62 64 65 67 69 70 71 71 72 73 74 74 75 75 76 76 77 77 77 77 77 77 77 77 77 77 77 77 77 77 78 78 78 78 78 79 79 79 80 81 80 80 81 81 81 81 81 81 81 81 81 81 81 81 82 82 82 82 82 82 83 83 84 85 85 85 85 85 85 84 84 83 83 82 81 80 80 80 79 79 79 79 79 77 77 77 76 76 75 75 75 75 75 75 75 75 76 77 77 77 77 78 78 79 80 80 80 81 81 81 82 82 82 83 84 84 84 85 85 85 85 85 85 85 85 85 86 85 85 85 84 84 84 84 84 85 85 85 85 84 84 84 84 84 84 85 85 84 84 83 83 83 82 81 81 81 81 82 82 82 82 83 84 85 85 84 84 84 84 82 82 81 79 78 77 75 74 72 72 70 68 67 66 69 68 68 68 68 66 65 64 63 62 61 60 59 59 58 56 56 55 57 56 55 54 46 43 40 38 36 35 33 32 33 33 35 39 41 43 68 68 70 72 75 78 79 81 82 82 83 84 84 84 85 85 85 85 85 85 85 85 85 86 85 84 84 83 83 82 82 82 81 81 81 81 81 80 81 81 81 81 81 81 81 81 81 81 81 81 82 83 84 85 85 86 86 86 87 87 87 87 87 88 88 88 88 88 88 88 88 88 88 89 89 89 89 89 89 89 89 89 89 89 88 88 88 88 88 87 86 86 87 86 86 85 84 83 81 80 78 76 73 71 69 65 63 62 60 60 60 60 59 58 58 58 59 60 61 62 65 66 68 98 100
33 34 37 38 40 42 44 46 48 53 55 57 60 62 64 67 68 70 71 72 72 72 72 72 72 71 70 70 69 68 67 67 66 66 66 66 65 65 65 65 65 65 65 66 66 66 66 67 67 68 68 68 69 69 69 70 70 70 70 70 69 68 68 67 66 66 65 64 64 63 62 62 61 59 59 59 59 60 60 60 60 60 60 60 61 61 61 62 63 63 64 64 64 65 66 67 68 68 68 68 69 69 69 69 69 69 69 69 70 70 71 71 72 72 72 73 73 74 74 74 74 74 74 73 73 72 71 71 70 70 69 68 68 67 66 67 67 67 67 67 67 66 66 65 63 63 61 60 57 55 54 53 52 51 51 51 51 52 53 55 58 62 64 65 67 68 69 70 71 72 73 73 74 75 75 76 76 77 77 77 77 77 77 77 77 77 77 78 78 78 78 78 78 78 78 78 79 79 79 80 81 81 81 81 81 81 81 81 81 81 81 81 81 82 81 82 82 82 82 82 83 83 84 84 85 85 85 85 86 85 85 84 83 83 82 81 81 80 80 79 79 80 80 78 78 78 77 76 76 76 75 75 75 75 75 75 75 75 76 76 76 76 77 77 78 79 80 81 81 81 81 82 82 83 83 84 84 84 85 85 85 85 85 85 86 86 85 86 85 85 85 84 84 85 85 85 85 85 85 85 84 84 84 85 84 85 85 85 84 84 84 83 84 83 82 82 82 82 82 82 82 84 83 84 85 85 84 85 84 83 82 80 80 78 76 75 73 72 70 67 70 68 67 66 65 64 65 66 65 64 63 62 61 60 59 58 56 56 57 56 56 55 54 53 52 50 45 42 39 37 35 32 31 30 30 33 36 39 41 43 68 63 66 69 72 76 78 79 80 81 83 84 84 84 85 85 85 85 85 86 86 86 86 86 85 84 84 83 83 82 82 82 81 81 81 81 81 81 82 81 81 81 81 81 81 81 81 81 81 82 82 83 84 85 86 86 86 87 87 87 87 87 87 87 87 87 87 87 87 88 88 88 88 89 89 89 89 89 89 90 90 90 89 89 88 88 88 88 88 87 86 86 87 86 85 84 84 83 82 78 76 73 71 69 66 65 63 62 60 60 59 58 58 57 57 57 58 59 60 60 63 64 67 70 100
33 34 37 38 40 42 44 46 48 51 53 58 60 62 65 67 68 70 71 72 73 73 73 73 72 71 71 70 69 69 68 67 67 66 66 66 65 65 65 65 65 65 65 65 65 66 66 66 67 68 68 68 69 69 69 69 70 70 70 69 69 68 68 67 67 66 65 64 64 63 62 62 61 60 60 60 60 61 60 60 60 60 60 60 60 60 61 62 63 63 63 63 63 64 65 65 66 66 66 67 68 68 68 68 69 69 69 69 69 69 70 70 71 71 71 72 72 73 73 73 73 73 74 73 73 72 71 71 71 70 70 69 69 68 67 67 68 67 67 67 67 66 66 65 63 62 61 59 56 55 53 51 51 50 49 49 49 52 53 55 56 60 62 63 65 66 68 69 70 71 72 73 74 75 75 76 76 77 77 77 77 77 77 77 77 78 78 78 78 78 78 78 78 78 78 78 79 79 79 80 81 81 81 81 81 81 81 81 81 81 81 81 81 82 82 82 82 82 82 82 83 84 84 85 85 86 86 86 86 85 85 84 84 83 82 82 81 80 80 80 80 80 80 79 79 79 77 76 76 76 75 75 75 75 75 75 75 76 76 76 76 76 77 78 78 79 80 81 81 82 82 82 83 83 84 84 84 85 85 85 85 86 85 85 86 86 86 86 85 85 85 85 85 85 85 85 85 85 85 85 84 84 84 85 85 85 85 85 84 84 84 84 84 83 82 82 82 82 82 82 83 84 84 84 85 85 85 84 83 83 81 80 78 77 75 73 73 70 69 67 66 65 63 62 61 60 64 64 64 63 61 61 59 59 58 57 56 56 55 54 54 53 52 51 50 47 44 41 36 34 32 30 30 30 31 33 35 38 41 44 48 58 62 67 70 74 76 78 80 81 83 84 84 85 85 85 86 86 86 86 86 86 86 86 85 85 84 83 83 82 82 81 81 81 81 82 82 82 82 81 81 81 81 81 81 82 81 81 81 82 82 83 84 85 85 85 85 86 86 86 86 86 86 86 87 87 87 87 87 87 88 88 88 89 89 89 90 90 90 90 90 90 89 89 88 88 88 87 87 87 87 87 87 86 85 84 83 82 80 78 76 73 71 69 66 65 63 61 60 59 58 58 57 56 56 56 57 58 59 63 64 67 68 70 100
32 33 37 39 40 42 45 47 49 52 54 56 61 62 65 67 68 70 72 73 74 74 74 73 72 71 71 70 69 69 68 67 67 67 65 65 65 65 64 64 64 64 64 64 65 65 65 66 67 68 68 69 69 69 69 69 69 69 69 69 69 69 68 67 67 66 65 64 64 63 63 63 62 61 61 61 61 61 60 60 60 60 60 60 60 60 60 61 61 62 62 62 62 63 63 64 65 65 65 66 68 68 68 68 68 69 69 69 69 69 70 70 71 71 71 72 72 72 73 73 73 73 73 73 73 72 72 72 71 71 70 70 70 69 68 67 68 67 67 67 67 66 66 65 64 62 60 59 57 54 53 51 49 50 49 49 49 49 50 52 53 57 60 61 63 64 66 68 69 70 72 73 74 75 75 76 76 77 77 77 77 77 78 78 78 78 78 78 78 78 78 78 78 78 78 78 79 79 79 80 81 81 81 81 81 81 81 81 81 81 82 82 82 82 82 82 82 82 82 82 83 84 84 85 85 86 86 86 86 85 85 85 84 83 83 82 81 80 81 81 81 81 80 79 79 79 78 77 77 76 75 75 75 76 76 76 76 76 76 76 76 76 77 78 78 79 80 81 81 82 82 83 83 84 84 85 85 85 85 85 85 86 86 86 86 86 86 85 85 85 86 85 85 85 85 85 85 85 85 85 85 85 85 85 85 85 85 85 84 85 85 84 84 83 82 82 82 82 82 82 83 84 84 85 86 86 85 84 84 82 81 80 78 77 75 71 69 67 65 64 62 61 60 58 57 55 47 44 41 63 61 61 59 58 57 56 55 54 54 53 52 52 51 50 48 46 43 41 36 32 30 29 28 28 29 31 33 35 39 42 47 55 58 64 68 72 76 78 81 82 83 83 84 85 85 85 85 85 85 85 85 85 85 86 85 85 84 83 83 82 82 81 82 82 82 82 82 82 82 81 81 81 81 81 81 82 82 82 82 83 83 84 84 84 85 85 85 86 86 86 86 86 86 86 87 87 87 87 87 87 87 88 88 89 90 90 90 90 90 90 90 90 89 89 88 88 87 87 87 87 86 86 86 86 85 84 83 82 80 78 76 73 71 69 67 64 62 61 59 59 58 57 56 55 54 57 57 58 59 61 63 66 68 71 74
31 33 35 37 40 43 45 47 50 52 54 56 59 61 66 67 69 70 72 73 74 74 74 74 72 72 71 70 69 69 68 67 67 67 66 65 64 64 64 64 64 64 64 64 64 65 65 66 67 68 68 69 69 69 69 69 69 69 69 69 69 69 68 67 67 67 67 66 65 64 64 63 63 62 62 62 62 61 61 60 60 60 60 60 60 60 60 60 60 60 60 60 60 61 62 63 65 65 65 66 67 68 68 68 68 68 68 68 68 68 69 69 69 70 71 72 72 72 73 73 73 73 73 73 73 72 72 72 71 71 71 71 70 69 68 68 68 67 67 67 67 67 66 65 64 62 60 59 57 54 53 51 49 49 48 47 47 47 48 50 51 52 57 58 61 62 64 68 69 70 72 72 73 74 76 76 77 77 77 78 78 78 78 78 78 78 78 78 78 78 78 78 78 78 79 79 79 79 80 80 81 81 81 81 81 81 82 82 82 82 82 82 82 82 82 82 82 82 82 83 83 84 84 85 86 86 86 86 86 85 85 85 85 84 84 83 82 81 81 81 81 81 81 80 80 80 79 78 78 77 76 76 76 76 76 76 76 76 76 76 76 76 77 78 79 79 80 81 81 82 83 83 83 84 84 85 85 85 86 86 86 86 86 86 86 86 86 86 86 86 86 85 85 85 85 85 85 85 85 85 85 85 85 85 85 85 85 85 85 85 85 84 84 83 83 83 83 83 83 83 83 84 84 85 86 86 85 84 84 82 81 79 77 73 71 68 66 64 62 60 59 57 55 54 52 55 47 44 41 40 38 36 35 35 34 33 33 32 31 31 30 29 29 50 48 46 43 33 30 29 27 26 25 26 26 28 30 33 36 40 45 55 58 64 68 75 77 79 80 82 83 83 83 84 85 85 85 85 85 85 85 85 85 85 85 84 84 84 83 82 82 82 82 82 82 82 82 82 82 81 81 81 82 82 82 82 82 82 82 83 83 83 84 84 85 85 85 86 86 86 86 86 86 86 86 86 86 86 86 86 87 88 88 89 90 90 90 90 90 90 90 90 89 89 87 87 87 87 87 87 86 86 86 86 85 84 83 81 80 78 76 73 71 69 66 64 60 59 58 57 57 57 56 55 54 55 56 57 58 59 62 65 68 71 76
31 33 35 37 39 44 45 47 50 52 54 57 59 61 63 66 69 71 72 74 74 75 75 74 73 72 71 70 70 69 68 68 67 66 66 65 64 64 63 63 64 64 64 64 64 64 65 66 67 67 68 69 69 69 69 69 69 69 69 69 69 69 68 68 68 68 68 67 66 65 65 64 64 63 63 62 62 61 61 60 60 60 59 59 59 59 59 59 59 59 59 59 59 61 62 63 64 64 64 65 66 66 67 67 67 67 68 68 68 68 69 69 69 70 70 71 72 72 72 72 72 72 72 72 73 73 72 72 71 71 71 71 71 70 69 69 69 68 67 68 68 67 66 66 64 62 60 59 57 55 52 50 49 47 46 45 45 45 46 47 48 49 54 58 61 62 64 66 68 69 70 72 73 74 75 77 77 78 78 78 78 78 78 78 78 78 78 78 78 78 78 79 79 79 79 79 80 80 80 80 81 81 81 82 82 82 82 82 82 82 82 82 82 82 82 82 82 82 82 83 83 84 84 85 85 86 86 86 86 86 86 86 86 85 84 83 82 81 82 82 82 82 82 81 81 81 80 79 79 78 77 76 76 76 76 76 76 76 76 76 76 76 77 78 79 80 81 81 81 82 83 83 83 84 84 85 85 85 86 86 86 86 86 86 86 86 86 86 86 86 86 86 86 86 86 86 86 86 86 85 85 85 85 85 85 85 85 85 85 85 85 84 84 84 84 83 83 83 83 83 83 84 84 85 86 86 85 84 83 82 80 76 74 71 69 66 63 61 59 57 55 57 55 54 52 50 45 40 38 37 36 36 35 34 34 33 32 31 31 31 30 29 29 28 26 25 24 28 27 25 24 23 23 23 23 25 27 33 36 40 45 51 61 66 69 73 76 78 80 81 82 83 84 85 85 85 85 85 85 85 86 86 86 85 85 84 84 84 83 83 83 82 82 82 82 82 82 82 82 82 82 82 82 82 82 82 82 82 82 82 82 83 84 84 85 85 85 85 85 85 85 85 85 86 86 86 86 86 86 86 87 88 88 89 90 90 90 90 90 90 90 90 89 88 88 87 87 87 87 87 86 86 87 86 85 84 83 82 80 79 77 71 69 66 64 62 60 59 58 57 57 56 55 55 54 54 55 56 56 58 60 64 67 76 83
31 34 35 37 39 41 44 48 51 53 55 57 60 62 64 67 68 71 72 74 74 75 75 74 73 73 72 71 70 69 69 68 67 67 66 65 65 64 63 63 63 63 63 63 63 64 64 65 66 68 68 69 69 69 69 69 69 69 70 69 69 69 68 68 68 68 68 67 67 67 66 64 64 63 63 63 62 61 61 61 61 59 59 59 58 57 57 57 58 59 59 59 59 60 61 62 62 63 63 63 64 65 66 66 67 67 68 68 68 68 68 68 69 70 70 71 71 71 72 72 72 72 72 72 73 73 72 72 71 71 71 71 71 70 70 70 70 69 68 68 68 67 66 66 64 63 61 59 57 55 52 49 47 46 45 43 43 43 43 47 48 49 54 56 58 60 61 64 66 67 69 71 71 73 75 76 77 78 78 78 78 78 78 78 78 78 78 78 79 79 79 79 79 79 79 79 80 80 80 81 82 82 82 82 82 82 82 82 82 82 82 82 82 82 82 82 83 83 83 83 84 84 85 85 85 86 86 86 87 86 86 86 86 85 85 84 83 82 83 83 83 83 83 82 82 82 81 79 79 78 77 77 76 76 76 76 76 76 76 76 77 77 77 78 79 80 81 81 81 82 83 83 83 84 84 85 85 85 86 86 86 86 86 86 86 86 86 86 86 86 86 86 86 86 86 86 86 87 86 85 85 85 85 85 85 86 86 86 85 85 85 84 85 84 83 83 83 83 84 83 83 84 84 85 86 86 85 84 83 80 77 75 73 69 67 64 61 61 59 57 55 53 51 49 48 42 40 38 36 35 34 33 33 32 31 33 32 31 31 30 29 29 27 27 25 25 24 25 24 23 23 23 23 23 23 25 27 30 34 43 48 54 59 64 67 71 74 77 79 81 81 83 84 85 85 85 85 86 86 86 86 86 86 85 85 85 84 84 83 83 83 82 82 82 82 82 82 82 82 82 82 82 82 82 82 82 82 82 82 82 82 82 83 83 84 84 84 85 85 85 85 85 85 85 85 86 86 86 86 86 87 88 88 89 90 90 90 90 90 91 90 89 89 88 88 87 87 87 87 87 87 87 87 86 85 85 82 80 79 77 74 71 69 66 64 62 60 58 57 57 56 55 55 54 53 53 53 54 57 60 64 67 70 76 82
31 34 35 38 40 42 45 47 49 54 56 58 61 63 65 67 68 69 71 74 75 75 75 74 74 73 72 71 71 69 69 68 67 67 66 65 65 64 63 63 63 63 63 63 63 64 65 65 66 67 68 69 69 69 70 70 70 70 69 69 69 69 69 68 68 68 68 68 67 67 66 65 65 64 63 63 62 61 61 61 60 59 58 58 57 57 57 57 58 58 58 58 58 59 60 60 60 61 61 62 63 64 65 66 67 67 67 67 67 67 67 67 68 69 69 69 71 71 71 71 72 72 72 72 72 72 72 72 72 72 71 71 71 70 71 71 70 69 68 68 68 67 66 66 64 63 61 59 57 55 53 48 46 45 43 43 43 43 43 44 45 47 48 52 54 57 58 61 64 65 67 69 70 73 75 76 77 78 78 78 78 78 78 78 78 78 79 79 79 79 79 79 79 79 79 79 79 79 80 81 81 82 82 82 82 82 82 82 82 82 82 82 82 83 83 83 83 83 83 83 84 85 85 86 86 87 86 86 87 86 86 86 86 86 86 85 84 83 84 84 84 84 84 82 82 82 81 80 80 79 78 78 77 76 76 76 77 77 77 77 77 77 77 78 79 80 81 82 83 83 83 84 84 84 84 85 85 85 86 86 86 86 86 87 87 87 87 87 87 87 87 87 87 87 87 87 87 87 86 85 85 85 86 86 86 86 86 86 85 85 85 85 85 84 83 83 83 83 84 84 84 85 85 86 86 86 86 83 81 79 77 75 72 69 67 64 61 58 56 54 52 50 47 44 42 39 37 35 33 32 34 33 33 32 31 31 30 29 29 28 27 27 26 25 24 23 23 23 24 23 23 23 23 23 23 23 25 32 36 41 46 51 57 61 66 70 74 77 79 81 81 82 83 85 86 86 86 86 86 86 86 86 86 86 85 85 84 84 83 84 83 82 82 82 82 83 83 83 82 82 81 81 82 82 82 82 82 82 82 83 83 83 83 84 84 85 85 85 85 85 85 85 85 85 85 85 85 85 86 86 87 89 90 90 90 90 90 90 90 91 90 89 89 89 88 87 87 87 87 88 87 87 86 86 85 83 82 80 79 77 74 72 69 66 64 62 60 58 57 56 56 55 53 53 53 53 54 55 57 58 61 65 69 75 80
30 34 36 39 41 43 45 48 50 52 57 59 61 63 65 67 68 69 71 73 75 75 75 74 74 73 72 72 71 70 69 68 67 67 66 65 65 64 63 63 63 63 63 63 63 64 65 65 66 67 68 70 70 70 70 70 70 70 69 69 69 70 69 68 68 68 68 68 68 68 67 66 65 64 64 63 62 62 62 60 60 59 59 58 57 57 56 55 55 56 56 56 56 56 58 58 58 59 60 62 63 64 65 65 66 66 67 67 67 67 67 67 68 69 69 69 71 71 71 71 71 72 72 72 72 72 72 72 72 72 71 71 71 71 71 71 70 69 69 68 68 67 67 66 65 63 61 59 57 54 52 48 46 45 43 42 41 41 41 41 42 43 45 49 51 53 56 59 61 65 67 69 70 72 73 76 77 77 77 78 78 78 78 79 79 79 79 79 79 79 79 79 79 79 79 79 79 79 80 81 81 82 82 82 82 82 82 82 82 82 83 83 83 83 83 83 83 83 83 83 84 84 85 86 86 87 87 87 87 86 86 86 86 86 86 85 85 84 85 85 84 84 84 83 83 83 82 81 81 80 79 79 78 77 77 77 77 77 77 77 77 77 78 79 79 80 81 82 83 83 84 84 84 85 85 85 85 85 86 86 86 87 87 88 88 88 88 88 87 87 87 87 87 87 87 87 87 87 86 86 86 86 86 86 86 86 86 86 85 86 86 85 85 84 83 84 84 84 84 84 84 85 86 86 86 87 84 83 81 79 77 75 72 68 65 62 59 56 53 51 49 45 42 41 39 36 37 35 33 32 31 31 30 29 29 28 27 27 26 26 25 25 24 23 24 23 23 23 23 23 23 23 23 23 23 24 26 30 35 39 45 50 57 61 66 70 73 76 79 80 82 83 85 86 86 86 86 86 86 86 86 86 86 86 86 85 84 84 84 83 82 82 83 83 83 83 83 83 82 82 81 81 82 82 82 82 82 82 82 82 82 82 82 83 83 84 85 85 85 85 85 85 85 85 85 85 86 86 86 87 88 88 89 89 90 90 90 90 90 90 89 89 88 88 88 87 88 88 88 87 87 87 86 86 85 83 82 81 79 77 74 72 70 67 64 62 60 57 56 56 55 54 53 53 53 53 54 55 55 57 60 63 68 73 78
30 32 37 39 42 44 46 49 51 52 55 57 62 64 66 67 68 70 71 73 74 75 75 75 74 73 72 72 71 70 70 69 68 67 66 66 65 64 64 64 63 63 63 63 63 64 65 66 66 67 68 69 70 70 70 70 70 70 70 70 70 70 70 68 68 68 68 69 69 68 67 67 66 65 64 63 62 62 62 60 60 59 58 58 56 55 55 54 53 54 54 54 54 54 55 58 58 59 60 61 62 63 63 64 64 65 65 66 66 66 66 66 67 69 69 69 70 70 70 71 71 72 72 72 72 73 73 73 73 72 71 71 71 71 71 71 70 69 69 69 68 68 67 66 65 63 61 59 57 54 52 51 46 43 42 41 39 38 39 39 39 40 42 43 48 53 56 59 61 63 65 67 69 70 72 74 75 77 77 78 78 79 79 79 79 79 79 79 79 79 79 79 79 79 79 80 80 80 81 81 81 82 82 82 82 82 82 83 83 83 83 83 83 83 83 83 83 83 83 83 84 84 84 85 85 86 87 87 87 86 86 87 87 87 86 86 85 84 85 85 85 85 85 84 84 84 83 82 82 81 80 80 78 77 77 77 77 77 77 77 77 77 78 79 80 80 82 82 83 83 84 84 84 85 85 86 86 86 87 87 88 88 88 88 88 88 88 88 87 87 87 87 87 88 87 87 87 87 86 86 86 86 86 86 86 86 86 86 85 86 85 85 85 84 84 84 84 84 84 84 84 85 86 87 87 86 84 83 81 79 76 74 70 67 64 60 57 54 51 49 44 42 42 41 39 36 34 32 31 29 28 28 27 26 26 25 24 24 24 24 25 25 24 23 23 23 23 23 23 23 23 23 23 23 23 23 26 30 35 39 45 50 55 60 65 69 73 76 78 81 83 84 85 86 86 86 86 86 86 86 86 86 86 86 86 85 85 84 84 83 83 83 83 83 83 83 83 83 82 82 82 81 81 81 81 81 81 81 82 82 82 82 82 83 83 84 84 84 84 84 85 85 85 86 86 86 86 87 87 87 88 88 89 89 89 89 89 89 89 90 89 89 88 88 88 88 88 88 88 87 87 87 87 86 85 84 82 81 79 77 74 72 67 65 62 60 59 57 56 56 55 54 53 52 52 52 53 54 55 56 59 62 67 76 83
31 33 36 38 43 44 46 49 51 53 56 58 60 63 66 67 68 70 71 73 75 75 75 75 74 73 73 72 71 71 70 69 69 68 67 66 65 64 64 64 63 63 63 63 63 64 65 66 67 67 68 69 70 70 70 70 70 70 70 70 70 69 69 69 69 69 69 69 69 68 67 67 66 65 65 63 62 62 61 60 59 58 58 57 56 54 54 53 52 51 52 52 54 54 55 55 56 57 58 59 60 61 62 63 63 64 64 65 65 66 66 66 67 68 68 68 69 70 71 72 72 72 73 73 73 73 73 73 73 72 71 72 72 71 71 71 70 70 69 69 68 68 67 66 65 63 61 59 57 55 52 50 44 42 41 39 38 36 36 36 37 40 42 43 48 50 53 56 58 61 62 64 67 68 71 72 74 76 76 78 78 79 79 79 79 79 79 79 79 79 79 79 80 80 80 80 80 80 81 81 81 82 82 82 83 83 83 83 83 83 83 83 83 83 83 83 83 83 83 84 84 84 84 85 85 86 87 87 87 87 87 87 87 87 86 86 86 85 86 86 86 86 86 85 85 85 84 83 83 81 80 80 78 77 78 78 78 78 78 78 78 78 78 79 80 81 82 82 83 83 84 84 84 85 85 85 86 86 87 87 88 88 88 88 88 88 88 88 87 87 88 88 88 88 87 87 87 87 87 86 86 86 86 86 86 86 86 86 86 86 85 85 85 85 84 84 84 84 84 84 84 85 86 87 87 86 85 83 81 79 76 74 70 66 63 59 56 53 49 46 44 42 39 38 36 33 31 29 28 26 26 25 24 24 23 23 24 24 24 24 23 23 23 23 23 23 23 23 23 23 23 23 23 23 23 23 26 30 33 38 43 49 53 59 63 67 75 77 80 81 83 84 85 86 86 86 86 86 86 86 87 87 87 86 85 85 85 84 84 84 83 83 83 83 83 83 83 83 82 83 82 81 81 81 81 81 81 81 82 82 82 82 82 83 83 84 84 84 84 85 85 85 85 85 85 85 86 87 87 87 88 88 89 89 89 89 90 90 90 89 89 88 88 88 88 88 88 88 88 87 87 87 87 86 85 84 82 80 77 75 73 70 67 65 62 60 59 57 57 56 55 55 53 52 52 52 53 53 55 57 62 67 71 76 80
32 34 36 38 40 43 47 50 52 54 57 59 61 63 65 68 69 70 72 73 75 75 75 75 75 74 73 72 72 71 69 69 69 68 67 66 65 64 64 64 64 63 63 63 64 64 65 66 67 68 69 69 70 70 70 70 70 70 70 70 70 69 69 69 69 69 69 69 69 68 68 67 66 65 65 64 63 62 61 59 58 58 57 56 55 54 52 51 52 51 52 52 52 52 53 53 54 55 57 58 59 60 61 62 62 63 64 64 65 66 66 66 67 67 68 68 68 69 70 72 72 73 73 73 73 73 73 73 73 72 72 72 72 71 71 71 71 70 69 69 68 68 67 66 65 64 61 59 57 55 53 50 47 42 39 38 37 35 36 36 37 37 38 40 45 47 49 52 55 58 59 62 64 66 69 72 74 76 76 77 77 78 78 78 79 79 79 79 79 80 80 80 80 80 80 80 80 80 80 81 81 82 82 82 83 83 83 83 83 83 83 83 83 83 83 83 84 84 84 84 85 85 85 85 85 87 87 87 87 87 87 87 87 87 86 86 86 86 87 87 87 87 87 86 86 85 84 83 83 82 81 80 79 78 79 79 79 79 79 79 79 79 79 79 80 81 82 82 83 84 84 84 84 85 85 85 86 86 87 87 88 88 88 88 88 88 88 88 88 88 88 88 88 88 88 88 88 88 87 86 86 86 86 86 86 86 87 86 86 86 85 85 86 85 84 84 84 84 84 84 84 86 87 87 87 86 85 83 81 79 76 73 69 66 63 59 53 50 47 44 42 40 37 35 33 31 29 27 26 24 24 23 24 24 23 23 23 23 23 23 23 23 23 23 23 23 23 23 23 23 23 23 23 23 23 23 25 29 33 38 42 48 52 62 66 71 75 77 80 81 83 84 85 86 86 86 86 87 87 87 87 87 86 86 86 85 85 84 84 84 84 84 84 84 83 83 83 83 83 82 81 81 82 81 81 81 81 81 81 81 81 81 81 82 82 83 83 83 83 84 84 85 85 85 85 85 86 87 87 88 89 89 89 89 89 89 89 89 89 89 89 88 88 88 88 88 88 88 88 88 88 88 87 86 84 83 81 80 77 75 73 70 67 65 63 60 59 57 57 56 55 55 53 52 52 53 53 54 55 57 61 64 69 73 78
32 34 37 39 41 44 46 51 53 55 58 60 62 63 65 66 68 70 72 73 74 74 74 74 74 74 73 72 71 70 70 70 69 68 67 67 65 65 65 65 65 64 64 64 64 65 65 66 67 68 69 69 70 70 70 70 71 71 70 70 70 69 70 70 69 69 69 69 69 68 68 67 66 66 65 64 64 61 60 59 58 57 56 55 54 54 53 51 50 50 50 50 50 50 51 51 52 53 55 56 58 59 61 62 62 63 63 63 63 65 65 65 66 67 67 68 69 70 70 71 72 73 73 73 73 73 73 73 73 73 73 72 72 71 71 72 71 70 69 69 69 69 67 67 65 64 62 59 57 55 53 50 47 41 39 38 37 35 34 34 35 35 35 37 39 43 46 49 52 54 56 59 64 66 69 70 73 74 75 76 77 78 78 78 79 79 79 79 79 80 80 80 80 80 80 80 80 80 80 81 81 82 82 82 83 83 83 83 83 83 83 83 83 84 84 84 84 84 84 84 85 85 85 85 85 87 87 87 88 87 87 87 87 87 86 87 87 87 87 87 87 87 87 86 86 86 85 84 84 83 82 81 80 79 80 80 80 80 80 79 79 79 79 79 81 82 83 83 83 84 84 84 85 85 85 85 86 87 87 87 88 88 88 88 88 88 88 89 89 89 89 89 89 89 89 88 88 88 87 86 86 86 86 87 87 87 86 86 86 86 86 86 86 85 84 84 84 84 84 85 85 86 87 87 87 87 85 84 81 79 76 73 69 66 58 55 52 49 46 43 40 38 36 34 32 29 27 26 26 24 23 23 23 23 23 23 23 23 23 23 23 23 23 23 23 23 23 23 23 23 23 23 23 23 23 23 25 28 32 37 42 51 56 62 66 71 75 77 80 82 83 84 86 86 87 87 87 87 87 87 87 87 86 86 86 85 85 84 84 84 85 85 85 84 83 83 84 83 83 82 81 81 82 81 81 81 81 81 81 81 81 81 82 82 82 83 83 83 83 84 84 84 85 85 85 85 86 87 87 88 89 88 88 88 88 89 89 89 89 89 89 89 88 88 88 88 88 88 88 88 88 87 87 86 84 83 81 80 78 75 73 71 68 65 63 61 59 58 56 56 55 53 53 52 52 52 53 53 55 56 59 62 66 70 75
33 35 38 40 42 45 47 49 52 56 59 61 62 63 65 66 68 69 72 73 74 74 74 74 74 74 73 73 71 70 70 70 69 68 68 67 66 66 66 66 66 65 65 65 65 66 66 65 67 68 69 70 70 70 71 71 71 71 70 70 70 70 70 70 69 69 69 69 69 69 68 67 67 66 65 65 64 62 60 58 57 57 56 55 54 52 52 51 49 49 49 49 49 49 49 50 51 52 54 56 58 59 59 60 60 61 62 62 63 64 65 65 66 66 67 68 69 70 70 71 72 73 73 73 73 73 73 73 73 73 73 72 72 71 71 72 71 70 70 70 69 69 68 67 65 64 62 60 57 55 53 50 47 44 39 37 35 34 33 32 32 33 33 34 37 40 43 46 52 54 56 59 61 64 67 68 71 73 74 75 75 76 77 77 78 79 79 79 79 79 79 79 79 79 79 79 80 80 80 81 81 81 82 82 83 83 83 83 83 83 83 84 84 84 84 84 84 84 84 84 85 85 85 85 85 87 87 87 87 87 87 87 87 87 87 87 87 87 87 87 87 87 87 86 87 86 86 85 85 84 82 82 81 80 81 80 80 80 80 80 80 80 80 81 81 82 83 84 84 85 85 85 85 85 85 85 86 86 87 87 88 88 88 88 89 89 89 89 89 89 89 89 89 89 89 88 89 88 87 86 87 87 87 87 87 87 86 86 86 86 86 86 86 85 84 84 85 85 85 85 86 87 87 87 87 87 85 84 81 79 76 73 69 62 58 54 51 48 45 42 40 37 35 32 32 29 27 24 23 23 23 23 23 23 23 23 23 23 23 23 23 23 23 23 23 23 23 23 23 23 23 23 23 23 23 23 25 28 36 42 46 51 56 61 65 69 74 76 79 81 83 84 86 87 87 88 88 87 87 87 87 87 86 87 86 86 85 85 85 85 85 85 84 84 84 83 84 83 83 82 82 82 82 81 81 81 81 81 81 82 82 82 83 82 82 83 83 83 84 84 84 85 85 85 85 86 87 87 88 88 89 88 88 88 88 88 89 89 89 89 89 89 88 88 88 88 88 88 88 88 88 87 87 86 84 83 81 80 78 76 73 71 69 64 62 59 58 57 56 56 55 53 53 52 52 52 52 52 53 55 57 60 64 72 77
32 36 39 41 43 46 48 50 53 54 59 61 63 64 66 67 69 69 71 71 73 73 73 73 73 73 73 73 72 71 70 70 69 69 68 67 67 67 67 67 67 66 66 65 65 66 66 66 67 68 69 70 71 71 71 71 71 71 71 70 70 70 70 70 69 69 69 69 69 69 68 67 67 66 65 65 63 62 61 58 57 56 55 54 52 51 50 50 48 48 48 48 48 48 48 50 51 52 53 54 57 57 58 59 59 60 61 62 62 63 64 64 66 66 67 68 69 70 71 71 72 73 73 73 73 73 73 74 74 73 73 72 72 72 72 72 71 70 70 70 69 69 68 67 66 64 62 60 57 55 53 50 47 44 39 37 35 33 32 31 31 31 31 32 37 40 43 46 48 51 54 56 58 61 65 66 68 72 73 74 75 76 77 77 78 78 78 78 78 78 79 79 79 79 79 79 79 79 79 81 81 81 82 82 82 83 83 83 84 84 84 84 84 84 84 84 84 84 84 84 85 85 85 85 86 86 86 86 86 87 87 87 87 87 87 87 87 87 87 87 87 87 87 87 87 86 86 86 86 85 83 83 81 80 81 81 81 81 81 81 81 81 81 82 82 83 84 85 85 85 85 85 85 85 85 86 87 87 88 88 88 89 89 89 89 89 89 89 89 89 89 89 89 89 89 89 89 88 87 87 87 87 87 87 87 87 86 86 86 87 86 86 86 85 85 85 85 85 85 86 87 87 87 87 87 87 85 84 82 79 77 69 65 62 58 54 51 48 45 42 40 37 35 32 30 28 24 23 23 23 23 23 23 23 23 23 23 23 23 23 23 23 23 23 23 23 23 23 23 23 23 23 23 23 23 23 28 32 36 41 45 49 55 60 63 68 73 76 79 81 83 84 87 87 87 88 88 88 88 88 88 88 87 88 87 87 86 86 86 85 85 85 84 84 84 84 84 83 83 82 82 82 82 81 81 81 82 82 82 82 82 82 83 83 83 83 83 83 84 85 85 85 86 86 86 87 87 87 88 88 89 88 88 89 89 89 89 89 89 89 89 88 88 88 88 88 88 88 88 88 88 87 87 86 85 83 82 80 78 74 72 69 67 64 62 59 58 57 56 56 55 54 53 52 52 52 52 52 54 56 58 64 67 72 77
33 35 37 42 44 47 48 50 53 55 57 60 64 65 67 68 69 69 70 71 72 73 73 73 73 73 73 73 72 71 71 70 69 69 68 68 68 68 68 68 67 66 66 66 66 67 67 67 67 68 69 70 71 71 71 71 71 71 71 70 71 70 70 70 69 69 69 70 70 69 68 67 66 66 65 65 63 62 60 59 57 55 54 53 52 50 50 48 48 47 46 48 48 48 48 49 50 50 51 53 54 56 57 58 58 59 59 60 62 63 64 64 65 66 67 68 69 70 71 72 72 73 73 73 74 74 73 74 74 73 73 73 72 72 72 72 72 71 71 70 69 69 69 67 66 64 62 60 58 55 53 50 47 44 39 37 35 33 31 30 30 31 31 32 34 35 40 42 45 47 50 53 56 59 62 64 66 70 73 74 75 76 77 77 77 78 78 78 79 79 79 79 79 79 79 79 79 79 79 80 80 81 81 81 82 83 83 84 84 84 84 84 84 84 84 84 84 84 84 84 85 85 85 85 86 86 87 87 87 87 87 87 87 87 87 87 87 87 87 87 87 88 88 87 87 86 86 86 86 84 83 83 82 81 81 82 82 82 82 82 82 82 82 83 83 83 84 85 85 85 85 85 85 85 85 87 87 87 88 88 89 90 90 89 89 89 89 89 89 89 89 89 89 90 90 89 89 88 88 87 87 87 87 87 87 86 87 87 87 87 86 86 86 86 85 85 85 85 85 86 87 87 88 88 88 87 86 84 82 77 73 69 66 62 58 54 51 48 45 42 39 36 34 32 27 25 24 23 23 23 23 23 23 23 23 23 23 23 23 23 23 23 23 23 23 23 23 23 23 23 23 23 23 23 23 25 28 31 36 40 44 48 54 58 62 67 71 75 78 83 84 86 87 88 88 89 89 89 89 89 89 89 88 89 88 87 87 86 86 85 85 85 84 84 84 84 84 83 83 83 82 82 81 82 82 81 82 82 82 82 82 82 83 83 83 83 83 83 84 85 85 86 86 86 86 87 87 88 88 88 89 89 89 89 89 89 89 89 88 89 89 88 88 88 88 88 88 88 88 88 88 88 87 86 83 82 80 78 76 74 72 69 67 64 62 60 58 57 57 56 55 54 53 53 52 51 52 53 54 56 58 61 64 69 74
34 36 37 40 44 47 49 51 54 56 58 61 63 66 68 68 69 69 70 71 72 73 73 73 73 73 72 72 72 71 70 70 70 69 69 69 69 68 68 68 68 68 67 67 67 67 68 68 68 69 69 69 71 71 71 71 71 71 71 71 71 70 70 70 70 69 69 69 69 68 68 67 66 66 65 64 63 61 60 58 57 54 53 51 51 50 49 48 48 47 46 46 46 47 47 47 48 49 50 51 52 54 56 56 57 59 59 60 62 63 64 64 65 66 67 68 69 70 71 72 73 73 73 73 74 74 74 74 74 74 74 73 73 73 73 73 72 72 71 70 69 69 69 68 66 64 62 60 58 56 53 50 47 45 42 37 35 33 31 30 30 30 30 31 32 33 37 39 42 44 47 50 53 56 62 64 66 70 71 73 74 74 75 76 77 77 78 78 78 78 78 78 79 79 79 79 79 79 79 80 80 80 81 81 82 82 83 83 84 84 84 84 84 84 84 84 84 85 85 85 85 86 86 86 87 87 87 87 87 87 87 87 87 87 87 87 87 87 88 88 88 88 88 87 87 86 86 86 85 84 84 84 83 82 82 83 83 83 83 83 83 83 82 83 83 84 84 85 85 85 85 85 85 85 86 87 87 87 88 88 89 90 90 90 90 90 90 90 90 90 90 90 90 90 90 89 89 88 88 87 87 87 87 87 87 87 87 87 87 87 86 86 86 86 85 85 85 85 85 86 87 88 88 88 88 87 86 84 80 77 73 69 66 62 58 54 51 48 45 42 39 36 32 30 28 25 24 23 23 23 23 23 23 23 23 23 23 23 23 23 23 23 23 23 23 23 23 23 23 23 23 23 23 23 23 25 27 30 34 38 42 47 51 56 61 67 71 78 81 83 85 86 88 89 89 90 90 90 90 90 90 90 90 88 88 87 87 87 87 86 85 85 85 85 84 84 84 84 84 82 82 82 81 82 82 82 82 82 82 82 82 82 83 83 83 83 83 84 85 85 85 86 86 87 87 87 88 88 89 89 90 89 88 88 88 88 89 89 88 89 89 88 88 88 88 88 88 88 88 88 87 86 86 84 83 82 80 78 76 74 72 69 67 65 63 60 59 58 57 55 54 53 52 53 52 51 51 51 53 54 56 58 62 65 70
34 36 38 40 43 45 50 52 55 57 59 62 63 65 66 69 69 69 70 71 71 72 72 72 72 72 72 72 71 70 70 71 71 70 69 69 69 69 69 69 69 69 68 68 68 68 69 69 69 70 69 69 70 71 71 71 71 71 72 71 71 71 70 70 70 69 69 69 69 68 68 67 66 65 64 64 62 61 59 58 56 55 52 51 50 50 49 48 47 46 46 45 45 45 46 47 48 48 49 51 52 53 56 56 57 58 59 60 61 62 63 64 65 66 67 69 70 70 71 72 73 73 74 74 75 75 75 75 75 75 75 74 74 74 73 73 72 72 71 70 70 70 69 68 66 65 62 60 58 56 54 51 48 45 42 37 35 33 31 30 29 28 29 29 29 31 34 37 39 41 44 50 53 56 59 61 64 68 69 71 72 74 75 76 76 76 77 77 78 78 78 78 78 78 79 79 79 80 80 80 81 81 81 82 82 82 83 83 84 84 84 84 84 84 85 85 85 85 85 85 86 86 86 86 87 87 87 87 87 87 87 87 87 87 87 87 88 88 88 88 88 88 88 87 87 87 87 87 85 85 85 84 83 83 83 84 84 84 83 83 83 83 83 84 84 85 85 85 85 85 85 85 85 86 86 87 87 87 88 88 89 90 91 91 91 91 91 91 91 91 91 91 91 90 90 89 89 89 88 87 87 87 87 87 87 87 87 87 87 87 86 86 86 86 86 86 86 86 86 86 87 88 88 88 88 87 85 82 80 77 73 69 66 62 58 55 52 49 46 43 37 34 32 30 28 26 24 23 23 23 23 23 23 23 23 23 23 23 23 23 23 23 23 23 23 23 23 23 23 23 23 23 23 23 23 25 27 30 33 37 41 47 51 56 65 70 74 78 80 83 85 87 89 90 90 91 91 91 91 90 90 89 90 89 89 88 88 88 88 87 86 86 85 85 84 84 84 84 83 82 82 82 82 82 82 82 82 82 82 82 82 82 83 83 83 83 83 84 85 85 85 86 86 87 88 88 88 88 89 90 89 89 88 88 88 88 89 89 88 88 88 87 87 88 88 88 87 87 87 87 87 86 86 84 84 82 81 78 76 74 73 70 68 66 61 60 59 57 56 55 54 53 53 53 52 51 51 51 52 52 54 56 59 67 70
35 37 39 41 44 46 48 53 55 58 60 62 63 65 66 68 70 70 70 71 71 71 72 72 72 72 71 71 71 71 70 71 71 70 70 69 69 70 70 70 70 70 69 69 69 69 69 69 69 70 70 70 70 71 71 72 72 72 72 71 71 71 71 71 70 69 69 69 69 69 68 67 67 65 64 63 62 60 59 57 56 55 54 51 50 49 49 47 46 46 45 44 44 45 45 46 47 48 49 51 52 53 54 56 57 57 58 59 61 62 62 63 64 66 67 69 70 70 71 72 73 74 75 75 76 76 76 76 76 76 76 75 75 74 73 73 72 72 71 70 70 70 69 68 68 65 63 60 58 56 54 51 48 45 42 40 35 33 31 30 29 28 28 28 28 30 31 37 39 41 44 47 50 53 56 58 61 64 68 70 71 73 74 75 76 76 77 77 77 78 78 79 79 79 79 79 79 80 80 81 81 81 81 82 82 82 83 83 84 84 84 84 85 85 85 85 85 85 85 85 86 86 86 86 87 87 87 87 87 87 87 87 87 88 88 88 88 88 88 88 88 88 88 87 87 87 87 86 86 85 85 85 84 84 83 84 84 84 84 84 84 84 84 85 85 85 85 85 85 85 85 86 85 86 86 86 87 87 88 88 89 90 91 92 92 92 92 92 92 91 91 91 91 91 90 89 89 89 87 87 88 87 87 87 87 87 87 87 87 87 87 87 86 86 86 86 86 86 86 87 88 89 88 88 88 86 85 82 80 77 73 70 66 62 58 55 52 49 46 40 37 35 32 30 28 26 24 23 23 23 23 23 23 23 23 23 23 23 23 23 23 23 23 23 23 23 23 23 23 23 23 23 23 23 23 25 26 30 33 37 41 45 54 59 63 68 73 77 80 83 85 88 90 91 91 91 91 91 91 91 91 91 90 90 90 89 89 89 89 88 87 87 86 84 84 84 84 84 83 82 83 83 82 82 82 82 82 82 82 82 82 83 83 83 83 83 84 84 85 85 85 86 87 88 89 89 89 89 89 90 89 89 88 89 89 89 89 89 88 87 87 88 88 88 88 87 87 87 87 87 87 86 85 84 83 82 80 79 76 74 71 68 66 64 61 60 59 57 56 56 54 54 53 52 51 51 50 49 50 52 53 56 62 67 70
36 38 40 42 45 47 49 52 54 59 60 62 63 65 67 68 69 70 70 70 70 71 71 71 71 71 71 71 71 71 71 71 71 70 70 70 70 70 71 71 71 71 70 70 69 69 69 70 70 70 71 71 71 72 72 72 72 72 72 71 71 71 71 71 71 69 69 69 70 69 68 67 67 66 63 63 61 60 59 57 56 54 53 52 49 49 48 47 46 45 45 45 45 45 45 46 47 48 49 50 51 53 54 54 56 57 58 59 60 61 62 63 64 65 67 69 70 71 72 73 74 75 76 76 76 76 76 77 77 76 76 75 75 75 74 73 73 72 71 71 70 70 69 69 68 65 63 60 58 56 54 51 48 45 42 40 35 33 32 30 29 28 27 27 28 30 31 34 36 38 42 44 47 50 53 56 59 62 67 69 70 73 74 75 76 76 77 77 78 79 79 79 79 79 79 79 79 80 80 81 81 81 82 82 83 83 84 84 84 84 84 85 85 85 85 85 85 85 85 85 86 86 86 86 87 87 87 87 87 87 88 88 88 88 88 88 88 88 88 88 88 88 88 88 88 87 86 86 86 85 85 85 84 84 84 85 85 85 85 85 85 85 85 85 85 85 85 85 85 85 85 86 86 86 86 87 87 88 88 89 89 90 91 92 92 92 92 92 92 92 92 92 91 91 90 90 90 88 88 88 88 87 87 87 87 87 87 87 87 87 87 87 86 86 86 86 86 87 87 87 88 89 88 88 87 85 84 83 80 77 74 70 66 62 59 55 52 46 43 40 37 35 32 30 28 26 24 23 23 23 23 23 23 23 23 23 23 23 23 23 23 23 23 23 23 23 23 23 23 23 23 23 23 23 23 25 26 29 32 36 43 47 52 57 61 66 71 75 79 82 85 88 90 91 91 92 92 92 92 92 92 92 91 91 91 90 90 90 89 88 87 86 85 85 85 85 84 84 83 83 83 83 82 82 82 82 82 82 82 82 83 83 83 84 84 84 84 85 85 86 86 86 88 89 89 89 89 89 89 90 89 89 89 89 89 89 88 88 87 87 87 87 88 88 88 87 87 87 87 87 86 85 85 83 82 81 78 76 74 73 71 68 66 64 62 61 59 58 57 56 54 53 52 51 50 49 49 49 50 52 53 56 59 63 67
35 39 41 43 46 48 50 52 54 56 61 63 64 66 67 68 69 70 70 70 70 70 70 71 71 71 71 71 71 71 71 71 71 70 70 70 71 71 71 71 71 71 70 70 70 70 70 71 71 71 71 71 71 72 72 72 72 72 72 71 71 71 71 71 71 70 70 69 69 68 68 67 66 66 64 63 61 60 58 57 55 54 52 51 50 48 47 47 46 45 45 45 45 45 45 46 47 47 48 50 51 52 53 54 55 56 57 58 60 61 62 63 64 64 66 69 70 72 72 73 74 75 76 76 76 76 76 77 77 77 77 76 76 75 74 74 73 72 72 71 70 70 70 69 68 66 63 61 58 56 54 51 48 45 42 40 35 33 32 30 29 28 27 27 28 28 29 32 34 36 39 42 45 48 51 53 57 60 67 69 70 72 74 74 75 76 77 77 78 79 79 79 79 79 79 79 79 80 80 81 81 81 82 82 83 83 84 84 84 84 84 85 85 85 85 85 85 85 85 85 86 86 86 86 87 87 87 88 88 87 88 88 88 88 88 88 88 88 88 88 88 88 88 88 88 87 87 86 86 85 85 85 85 85 85 85 85 85 85 85 85 85 85 85 85 85 85 85 86 86 86 86 86 86 86 86 87 87 88 89 90 90 91 92 92 92 92 92 92 92 92 92 91 91 90 90 89 88 88 88 88 87 87 87 87 87 87 87 88 87 87 87 87 86 87 87 87 87 87 87 88 89 89 89 87 86 84 83 81 78 74 70 66 63 59 52 49 46 43 40 37 35 33 30 28 26 24 23 23 23 23 23 23 23 23 23 23 23 23 23 23 23 23 23 23 23 23 23 23 23 23 23 23 23 23 24 26 30 34 37 40 45 50 54 59 64 68 75 79 82 85 88 92 92 93 93 93 93 93 93 93 93 92 92 92 90 90 89 88 87 87 86 85 85 85 85 84 84 84 83 83 83 82 82 82 82 82 83 83 83 83 84 84 84 84 84 84 85 86 87 86 87 88 89 89 89 89 89 89 90 89 90 89 89 88 88 88 87 87 87 87 87 87 87 87 87 87 87 87 86 85 85 83 82 80 79 78 76 74 73 71 68 66 65 63 61 60 58 57 55 53 52 51 51 50 49 49 49 49 50 51 54 56 60 63
36 38 40 43 46 48 50 53 55 57 60 62 65 67 68 69 69 70 70 70 70 70 70 70 71 71 71 71 71 71 71 71 71 71 71 71 71 71 71 71 71 71 71 71 71 71 71 71 72 72 72 72 72 72 72 72 72 72 72 71 72 72 71 71 71 70 70 69 69 69 68 67 66 66 64 63 62 59 58 56 55 53 52 50 49 48 47 47 46 45 45 45 45 45 45 45 47 48 48 49 50 52 52 53 54 56 57 58 60 60 61 62 64 65 66 68 70 72 73 73 74 75 76 76 76 76 76 77 77 77 77 76 77 76 75 75 74 73 72 72 70 70 70 69 68 67 63 61 59 56 54 51 48 45 43 41 39 33 32 30 29 28 28 27 27 28 29 31 33 35 37 40 43 46 51 53 57 60 65 68 70 72 73 74 75 76 76 77 78 79 79 79 79 79 79 79 79 80 80 81 81 81 82 82 83 83 84 84 84 84 84 85 85 85 85 85 85 85 85 86 86 86 87 87 88 88 87 88 88 88 88 88 88 88 87 87 88 88 88 88 88 88 88 88 88 87 87 87 86 85 85 85 85 85 85 85 85 85 85 85 85 85 85 85 85 86 86 86 86 86 86 86 86 86 86 86 87 87 88 89 90 90 92 92 92 92 92 92 93 93 93 92 91 91 91 90 89 88 88 88 88 87 87 87 87 88 88 88 88 87 87 87 87 86 87 87 87 87 87 88 89 89 89 89 87 86 84 83 81 78 74 70 66 63 55 52 49 46 43 40 37 35 33 30 28 26 25 23 23 23 23 23 23 23 23 23 23 23 23 23 23 23 23 23 23 23 23 23 23 23 23 23 23 23 23 25 27 29 32 34 38 42 47 54 59 64 68 74 78 82 88 90 92 93 94 94 94 94 94 94 94 93 92 92 91 90 90 89 88 88 87 86 86 85 85 85 84 84 84 83 83 83 83 83 83 83 83 84 84 84 84 84 84 84 84 84 85 86 86 87 87 88 89 89 89 89 89 89 90 90 90 89 88 88 88 88 88 87 86 86 86 87 87 87 87 87 86 86 86 85 84 84 83 82 80 79 78 76 75 73 71 69 67 66 64 61 59 58 56 55 53 52 51 50 50 49 48 47 48 48 49 52 57 60 64
36 38 40 42 44 49 51 54 56 58 61 63 65 68 69 69 70 70 70 70 70 70 71 71 71 71 71 71 71 71 71 71 71 71 71 71 71 71 71 71 71 71 71 71 71 72 72 72 72 72 72 72 72 72 72 72 72 72 72 72 72 72 71 71 71 71 70 70 69 69 68 67 66 66 64 63 61 60 57 56 54 53 51 50 49 48 48 47 46 46 45 45 45 45 45 45 46 48 49 49 50 51 52 53 54 55 56 57 59 60 61 62 63 65 66 68 70 72 73 73 74 75 76 76 76 76 76 77 77 77 77 77 78 77 76 76 75 73 72 72 70 70 70 69 68 67 65 61 59 57 54 51 48 45 43 41 39 34 33 31 30 28 28 27 27 28 28 29 32 34 36 40 43 46 49 52 55 58 64 67 69 71 73 73 75 76 77 77 78 79 79 79 79 79 79 79 80 80 80 81 81 82 82 82 83 83 84 84 84 84 84 85 85 85 85 85 86 86 86 86 87 87 87 87 88 88 88 88 88 88 87 87 87 87 87 87 87 87 87 87 88 88 88 87 87 87 87 87 86 85 86 86 85 85 85 85 85 85 85 85 85 85 86 86 86 86 86 86 86 86 86 86 86 86 86 86 87 87 88 89 90 91 92 92 92 93 93 93 93 93 93 92 91 91 90 90 89 89 88 88 88 87 88 88 88 88 88 88 88 87 87 87 87 87 87 87 87 87 87 89 90 89 89 88 87 85 84 83 81 78 74 70 63 59 55 52 49 46 43 40 37 35 33 31 28 26 23 23 23 23 23 23 23 23 23 23 23 23 23 23 23 23 23 23 23 23 23 23 23 23 23 23 23 23 23 24 26 28 30 34 38 42 47 52 56 61 66 76 81 84 87 91 92 94 95 95 95 94 94 94 94 94 93 92 91 91 90 89 89 88 87 87 86 85 85 85 84 84 83 83 83 83 83 83 84 84 84 84 84 84 84 84 84 84 84 84 85 86 86 87 88 88 89 90 90 90 90 90 91 90 90 89 88 88 88 87 87 86 86 86 86 86 86 86 86 86 86 86 86 85 84 84 82 81 80 78 77 76 75 73 71 67 66 64 63 61 59 58 56 55 53 53 51 50 49 48 48 47 47 48 49 52 55 60 64
37 39 40 43 45 48 52 55 57 59 61 63 65 66 68 69 70 70 70 71 71 71 71 71 71 71 71 71 71 71 71 71 71 71 71 71 71 71 71 71 71 71 71 72 72 72 72 72 72 72 72 72 72 72 72 72 72 72 73 73 72 72 71 71 72 71 70 70 69 68 67 67 66 65 64 62 61 59 58 55 54 52 51 50 49 48 48 47 46 46 45 45 45 45 45 45 46 47 49 49 50 51 52 53 54 54 55 57 58 59 61 63 63 65 67 68 70 72 73 74 74 75 76 76 76 76 76 77 77 78 78 78 78 77 76 76 76 74 73 73 71 71 70 69 69 67 66 61 59 57 54 51 48 46 44 42 40 37 34 32 31 29 29 28 28 28 28 29 32 34 36 38 41 45 48 51 54 57 60 66 69 70 72 74 75 76 77 77 78 79 79 79 79 80 80 80 80 81 81 82 82 82 82 82 83 83 84 84 84 84 84 85 85 86 86 86 86 86 86 86 87 87 87 87 88 88 88 88 88 88 87 88 88 87 87 86 87 87 87 87 87 87 87 87 87 86 86 86 86 86 86 86 85 85 85 85 85 85 85 86 86 86 86 86 86 86 86 86 86 86 86 86 86 86 87 87 87 88 88 89 91 92 93 93 93 93 93 93 93 93 93 92 92 91 90 90 90 89 88 88 88 88 88 88 88 88 88 88 88 87 87 88 88 88 88 87 87 87 88 89 90 89 88 88 87 85 84 82 80 77 74 67 63 59 55 52 49 46 43 40 37 35 33 31 26 25 24 23 23 23 23 23 23 23 23 23 23 23 23 23 23 23 23 23 23 23 23 23 23 23 23 23 23 23 23 24 26 28 30 32 36 40 44 49 53 63 70 76 80 84 87 90 92 94 95 95 95 95 95 95 94 94 93 92 92 91 90 90 89 88 87 87 86 85 85 85 85 84 83 83 83 83 84 84 84 84 84 84 84 84 84 84 84 84 84 84 85 86 86 87 88 89 90 90 90 91 90 91 91 90 90 89 89 88 88 87 87 87 86 86 86 86 86 86 86 86 86 86 85 84 84 83 81 81 79 78 77 75 74 71 70 67 66 64 63 61 59 58 56 55 53 53 51 50 48 47 46 46 46 48 49 52 55 58 62
37 39 41 44 46 48 51 53 58 60 62 63 65 66 68 69 71 71 71 71 71 71 71 71 71 71 71 71 71 71 71 72 72 72 72 72 72 72 72 72 72 72 72 73 73 72 72 72 72 72 72 72 72 72 72 73 73 73 73 73 72 72 71 71 72 71 70 69 69 68 67 66 65 65 63 62 61 60 58 56 54 52 51 50 49 49 48 47 47 46 45 45 45 45 46 46 46 47 48 50 50 51 52 53 54 55 55 56 58 60 61 63 64 65 67 68 70 71 73 74 75 76 76 76 77 77 77 77 78 78 78 78 78 78 77 77 77 76 74 74 72 72 71 69 69 67 66 63 59 57 55 52 49 47 45 43 40 38 35 33 32 31 30 30 28 28 28 29 31 33 35 38 41 44 47 50 53 56 60 66 68 70 72 74 75 76 77 78 79 79 80 80 80 80 80 80 80 81 81 82 82 82 83 83 83 84 84 84 85 85 85 86 86 86 86 86 86 86 86 86 87 87 87 87 87 87 87 87 87 88 88 87 87 87 87 86 86 86 87 87 87 87 87 87 87 86 86 86 86 86 86 86 85 85 85 85 86 86 86 86 86 86 86 86 86 86 86 86 86 86 86 87 87 87 87 87 88 88 89 89 91 92 93 93 93 93 93 93 93 93 93 92 92 91 90 91 90 89 88 89 89 88 88 88 88 88 88 88 88 88 88 89 89 89 88 88 88 88 89 89 90 89 88 88 86 85 83 82 80 74 71 67 63 59 56 53 50 46 43 40 37 35 31 29 27 26 25 24 24 23 23 23 23 23 23 23 23 23 23 23 23 23 23 23 23 23 23 23 23 23 23 23 23 23 23 24 25 26 28 30 33 37 41 50 55 60 70 75 79 84 87 90 92 94 95 96 96 96 95 95 95 94 93 92 92 91 90 90 89 88 87 86 85 85 85 86 85 85 84 84 84 84 85 85 84 84 84 84 84 84 84 84 84 84 85 85 85 86 87 88 89 91 90 90 91 91 91 91 91 90 90 89 89 88 87 87 87 86 85 86 86 86 86 86 86 85 85 85 84 84 83 82 81 79 78 77 77 75 74 71 70 68 67 65 64 62 59 58 57 54 52 51 49 48 47 47 46 46 46 46 47 50 53 56 60
37 39 42 44 46 49 51 53 56 60 62 63 65 67 68 69 70 71 71 71 71 71 71 71 71 71 71 71 71 72 72 72 72 72 73 73 73 73 73 73 73 73 72 72 73 73 73 73 73 73 73 73 73 73 73 73 74 74 74 73 72 72 72 72 72 71 70 70 69 68 68 66 66 65 63 62 61 60 58 57 55 52 51 50 49 49 48 47 47 47 46 46 45 45 46 46 46 47 48 50 51 51 52 53 54 55 56 56 57 60 61 63 64 65 67 68 70 71 72 74 75 76 77 77 77 77 77 77 78 78 78 78 78 78 78 78 77 77 75 75 73 73 71 69 69 67 66 64 59 57 55 53 50 48 46 44 41 39 36 35 33 31 30 30 29 29 29 30 31 33 36 38 41 43 47 50 53 56 60 66 68 71 72 74 75 76 77 78 79 80 80 80 80 80 80 80 80 81 81 82 82 83 83 83 84 84 85 85 85 85 85 86 86 86 86 86 86 86 86 86 87 87 87 87 87 87 88 88 88 88 88 87 87 86 86 86 86 86 86 86 86 86 86 86 87 86 86 86 86 86 86 86 85 85 86 86 86 86 86 86 86 86 86 86 86 86 86 86 87 87 87 87 87 87 87 87 88 88 89 90 91 92 93 93 93 93 93 93 93 93 93 92 92 91 91 91 90 89 88 89 89 88 88 88 88 88 89 89 89 89 89 89 90 90 89 89 88 88 89 89 90 89 89 87 86 84 83 81 77 74 71 67 63 59 56 53 50 47 44 41 38 34 32 29 28 27 26 25 24 24 23 23 23 23 23 23 23 23 23 23 23 23 23 23 23 23 23 23 23 23 23 23 23 23 23 23 23 24 26 28 30 38 42 47 51 55 70 75 79 83 86 89 92 93 95 96 96 96 95 95 95 94 93 92 92 91 90 90 89 88 87 86 86 86 86 86 85 85 85 85 85 84 85 85 85 85 85 85 85 85 85 85 85 85 86 86 86 87 88 89 90 91 91 91 91 91 91 91 91 90 90 90 89 88 87 86 87 86 85 86 86 86 86 86 85 84 85 85 84 83 82 80 80 79 78 77 77 75 74 71 71 69 68 66 65 60 58 57 55 54 52 51 49 48 47 46 46 45 45 45 46 48 53 57 59
35 37 42 44 47 49 51 53 56 58 63 64 66 68 68 69 70 71 72 72 72 72 71 71 71 71 71 72 72 72 72 72 72 72 73 73 73 73 73 73 73 73 73 73 74 73 73 73 73 73 73 73 73 73 74 73 74 74 74 73 72 72 72 72 72 71 71 70 69 68 68 67 66 65 63 63 61 60 58 57 55 54 51 50 50 49 48 48 48 47 46 46 46 46 46 47 47 48 48 49 51 52 52 53 54 55 56 56 57 58 61 63 64 65 67 69 70 71 73 74 75 76 77 77 77 77 77 77 78 78 78 78 78 78 78 78 78 78 77 76 73 73 71 70 69 68 66 64 62 58 56 53 51 49 47 45 42 39 38 35 33 33 32 31 31 30 30 31 32 34 36 39 41 44 47 50 53 56 59 65 68 71 72 74 76 76 77 78 79 80 80 80 80 80 80 80 80 81 81 82 82 83 83 83 84 84 84 85 85 85 85 86 86 86 86 86 86 86 86 86 86 87 87 87 87 87 88 88 88 87 87 86 86 86 86 85 85 85 85 86 86 86 86 86 87 86 86 86 86 86 86 86 86 86 87 87 87 87 87 86 86 86 86 86 86 86 87 87 87 87 87 87 87 87 87 87 88 88 90 90 91 92 93 93 93 93 93 93 93 94 93 92 92 92 91 91 90 89 89 90 90 89 89 89 89 89 90 90 90 90 90 90 90 90 89 89 89 89 89 89 90 90 89 87 86 84 81 79 76 73 71 67 63 60 57 53 50 47 44 39 36 34 32 30 29 27 27 25 24 24 23 23 23 23 23 23 23 23 23 23 23 23 23 23 23 23 23 23 23 23 23 23 23 23 23 23 23 23 23 28 31 35 42 47 51 55 52 76 79 83 86 88 93 94 95 95 95 96 95 95 95 94 93 93 92 91 90 89 89 88 87 86 86 86 86 86 85 85 85 85 85 86 86 86 86 86 86 86 86 86 86 86 86 86 86 86 87 88 89 90 91 91 91 91 91 91 91 91 91 91 90 89 88 88 87 86 86 86 86 85 85 85 85 85 85 84 84 83 83 82 82 80 80 78 77 78 77 75 74 72 72 69 67 66 64 61 59 57 55 54 52 51 49 48 46 46 45 44 44 45 47 49 52 56 59
35 37 39 44 47 49 51 54 56 58 61 63 66 68 69 69 70 71 72 72 72 72 72 72 72 72 72 73 73 73 73 73 73 73 73 73 73 73 73 73 73 73 74 74 74 74 73 73 73 73 73 74 73 73 74 74 74 74 74 73 73 73 73 72 72 71 71 70 69 68 68 67 66 65 64 63 61 60 59 57 56 54 53 51 50 49 48 48 48 47 47 47 47 47 47 47 48 49 49 50 51 52 53 53 54 55 56 57 57 58 62 63 64 66 67 69 70 71 73 74 75 76 77 77 77 77 77 77 78 78 78 78 78 78 79 79 79 78 77 76 74 73 71 70 69 68 66 64 62 59 57 54 52 50 47 45 42 41 39 37 35 34 34 33 32 32 32 32 33 36 37 39 41 44 47 50 53 56 59 65 69 71 73 74 76 77 77 78 79 80 80 80 80 80 80 81 81 81 81 82 83 83 83 83 84 84 84 85 85 85 85 85 85 85 85 86 86 86 86 87 87 87 87 87 87 87 87 87 87 86 87 87 86 86 86 85 86 86 86 86 86 86 86 86 86 86 86 86 86 86 86 86 87 87 87 87 87 87 87 86 86 86 86 86 87 87 87 87 87 87 87 87 87 87 87 87 88 89 90 91 92 92 93 93 93 93 94 94 94 94 93 92 92 92 91 91 90 90 90 90 91 90 90 90 90 90 91 91 91 90 90 90 91 90 90 89 89 89 90 90 90 90 89 88 86 83 81 79 76 73 70 67 64 60 57 53 50 47 41 39 36 34 32 30 29 27 27 26 25 25 23 23 23 23 23 23 23 23 23 23 23 23 23 23 23 23 23 23 23 23 23 23 23 23 23 23 23 23 26 28 31 35 39 44 48 52 51 76 78 81 87 89 92 93 94 94 95 96 95 94 94 94 93 92 91 90 90 89 89 88 87 87 86 86 86 86 85 85 86 86 86 86 86 86 87 87 87 87 87 87 87 86 86 86 87 87 88 89 90 91 91 91 91 91 91 91 91 91 91 91 90 89 89 88 87 86 87 86 86 85 85 85 85 85 84 84 84 83 83 82 81 80 79 78 78 78 77 76 73 73 71 70 68 66 64 61 59 57 55 54 52 51 50 48 45 44 44 44 44 45 46 49 52 56 59
