86 86 87 89 89 90 91 92 92 93 94 95 95 96 96 96 96 95 95 94 94 92 91 90 89 89 88 91 90 89 89 89 88 88 88 88 87 87 87 87 87 87 87 87 87 87 87 87 88 88 89 89 90 91 92 93 94 95 95 96 97 98 98 99 99 100 101 101 102 102 102 102 103 103 103 103 102 102 102 102 102 102 102 101 101 101 103 103 103 104 104 104 105 106 106 106 107 108 108 108 109 110 110 110 110 110 110 110 110 111 111 111 111 111 111 112 112 112 113 113 113 114 115 115 116 116 117 117 117 117 117 117 117 117 116 116 115 111 111 110 109 108 108 107 107 106 109 109 108 108 108 108 107 108 95 95 95 95 96 96 96 100 100 100 101 101 101 101 102 102 102 102 112 113 113 113 114 114 114 115 115 115 116 116 116 116 116 116 116 117 117 116 117 117 117 118 118 118 119 119 119 120 120 120 119 119 119 119 118 117 116 115 113 112 111 109 108 106 105 103 102 99 98 97 96 96 95 95 95 95 95 95 96 96 97 98 98 99 100 101 101 102 104 105 106 107 108 109 110 111 112 114 115 116 118 119 120 121 123 124 125 126 127 128 128 129 130 130 130 130 130 130 130 130 130 130 130 130 130 130 130 129 129 128 128 127 127 127 126 126 125 125 125 125 125 125 125 125 126 126 127 127 128 129 129 130 131 131 132 132 133 133 133 134 134 134 135 135 135 135 135 136 136 136 136 136 136 136 136 136 137 137 137 137 137 137 138 138 138 138 137 137 137 136 136 136 135 135 135 135 135 134 134 133 133 133 133 133 133 132 132 132 132 132 132 132 132 132 132 132 132 132 133 134 134 135 135 136 138 139 141 142 144 146 153 154 156 159 161 162 164 165 164 163 162 161 159 156 154 154 152 149 148 146 142 141 140 139 138 138 137 137 136 136 136 136 135 136 136 136 136 136 136 136 136 136 136 136 136 136 136 136 136 136 136 136 136 136 136 136 135 135 135 135 134 134 134 133 133 133 132 132 131 131 130 129 129 128 128 127 126 125 124 123 121 119 118 117 116 115 114 113 112 111 110 109 108 107 106 105 104 102 101 100 99 98 95 95 94 93 92 91 90 90 89 88 88 87 86 86 85 85 84 84 84
87 87 88 89 90 91 93 93 94 95 96 97 97 98 98 98 98 98 97 97 96 95 95 94 93 92 91 91 90 89 89 89 88 88 88 88 87 87 87 87 87 87 90 90 90 90 91 91 91 92 92 93 93 94 94 95 96 97 97 98 99 99 100 101 101 102 102 103 103 103 104 104 104 104 104 104 103 103 103 103 103 103 103 103 102 102 103 103 103 104 104 104 105 106 106 106 107 108 108 108 109 110 110 111 111 111 111 111 111 111 112 112 112 112 112 113 113 113 113 114 114 115 115 116 116 117 117 117 118 118 118 118 118 117 117 116 116 115 114 114 113 112 111 110 110 109 109 109 108 108 108 108 107 108 95 95 95 95 96 96 96 97 101 101 102 102 102 102 102 103 103 103 113 113 114 114 114 115 115 116 116 116 117 117 117 118 118 118 118 118 118 118 118 118 119 119 119 120 120 120 120 120 121 121 120 120 119 119 118 117 116 115 113 112 111 109 108 106 105 103 104 103 101 100 99 98 98 98 97 97 97 98 98 98 99 99 100 101 101 102 103 104 106 106 107 108 109 110 112 113 114 115 116 117 119 120 121 122 124 125 126 126 128 129 129 129 130 130 130 130 130 130 130 130 130 130 130 130 130 130 130 129 129 129 128 128 128 127 126 126 126 126 125 125 126 126 126 126 126 127 127 128 129 129 130 131 131 131 132 133 133 133 134 134 134 135 135 135 135 135 135 136 136 136 136 136 136 136 136 136 137 137 137 137 137 137 138 138 138 138 136 136 135 135 135 134 134 134 134 133 133 133 132 132 132 132 132 132 131 131 131 131 131 131 131 131 131 131 131 131 131 131 132 132 133 133 134 135 136 137 139 140 144 148 151 154 156 159 161 162 164 165 164 163 162 161 159 156 154 151 150 147 144 142 141 140 139 138 137 137 136 136 136 135 135 135 135 135 135 135 135 135 135 135 135 135 135 135 135 135 136 136 136 135 136 136 136 136 136 136 136 135 135 135 134 134 134 133 133 133 132 132 131 131 130 129 129 128 128 128 127 127 124 123 122 121 119 118 117 116 115 114 113 112 111 110 109 108 107 106 105 104 101 100 99 98 97 96 95 94 93 92 91 90 89 89 88 87 87 86 85 85 84 84 83
88 89 89 90 91 92 93 94 95 96 97 98 99 100 100 100 100 100 100 99 99 98 97 97 96 95 95 94 94 93 93 92 92 92 91 91 91 91 91 91 90 90 90 90 90 90 90 91 91 92 92 93 93 94 94 95 99 99 100 100 101 102 102 102 103 103 103 104 104 105 105 105 105 105 105 105 104 104 104 104 104 104 104 104 104 104 104 104 104 105 105 106 106 107 107 107 108 109 109 109 110 110 110 111 111 111 111 111 111 111 112 112 112 112 112 113 114 114 114 114 115 115 116 116 116 117 118 118 118 118 119 118 118 118 117 117 116 115 115 114 113 112 112 111 111 111 110 110 109 109 109 109 109 109 96 96 96 96 97 97 97 97 101 101 101 102 102 102 102 103 103 103 113 113 114 115 115 116 116 116 117 117 118 118 118 119 119 119 119 120 120 119 120 120 120 120 120 121 121 121 121 121 122 121 121 121 120 120 119 118 117 116 115 114 113 111 110 108 107 105 104 103 101 100 99 98 98 98 97 97 97 98 98 98 99 101 102 102 103 104 104 105 106 108 108 109 110 111 113 114 115 116 117 118 120 121 122 123 125 126 126 127 129 129 130 130 130 130 130 130 130 130 130 130 130 130 130 130 130 130 130 129 129 129 128 128 128 127 126 126 126 126 125 125 126 126 126 126 127 127 128 129 129 130 130 131 131 132 132 133 134 134 134 134 135 135 135 136 136 136 136 136 136 136 136 136 136 136 136 137 137 137 137 137 137 137 137 137 137 137 136 136 135 135 135 134 134 134 134 133 133 133 132 132 131 131 131 131 130 130 130 130 130 130 130 130 131 131 131 131 131 131 131 131 132 132 133 133 134 136 138 140 142 146 149 153 155 158 160 161 159 160 160 162 160 159 157 154 151 151 147 146 144 142 141 140 139 138 137 137 136 136 136 135 135 135 135 135 135 135 135 135 135 135 135 135 134 134 135 135 135 136 135 135 136 136 136 136 136 136 136 136 135 135 135 135 134 134 134 133 133 133 132 132 132 131 130 130 129 127 127 125 124 123 122 121 119 118 117 116 115 114 113 112 112 111 110 109 108 106 105 104 102 101 100 99 98 97 96 95 94 93 92 91 90 89 88 88 87 86 85 84 84 84 83
88 89 89 90 91 92 93 94 95 96 97 99 100 101 101 102 102 102 102 101 101 100 100 99 99 98 97 97 97 97 96 96 96 96 95 95 95 95 95 94 94 94 94 94 94 94 94 94 95 95 95 95 96 97 97 98 99 99 100 100 101 102 102 102 103 103 103 104 104 104 105 106 106 106 106 106 105 105 105 105 105 105 105 105 105 105 105 105 105 106 106 107 107 108 108 108 109 109 110 110 110 111 111 111 112 112 112 112 112 112 112 113 113 113 113 113 114 114 114 114 115 115 116 116 116 117 117 118 118 118 119 119 118 118 117 117 116 116 115 115 114 113 112 112 112 111 111 110 110 110 110 110 110 110 110 110 110 101 101 101 102 102 102 102 102 112 112 112 113 113 113 113 114 114 114 115 115 116 116 116 117 117 118 118 118 118 119 119 119 120 121 121 121 121 121 121 122 122 122 122 122 122 123 122 123 122 121 121 120 120 119 118 117 116 115 113 112 110 109 108 106 105 104 103 101 101 100 100 100 100 100 100 100 100 101 101 102 102 103 104 104 105 106 108 108 109 110 111 113 115 115 117 118 119 120 122 123 124 125 126 127 128 129 130 130 130 130 130 130 130 130 130 130 130 130 130 130 130 130 130 130 130 129 129 129 128 128 127 127 127 126 126 126 126 126 126 126 126 127 127 128 129 129 130 130 131 131 132 132 134 134 134 135 135 135 136 136 136 136 136 136 136 136 137 137 137 137 136 136 137 137 137 137 137 137 137 136 136 136 136 135 135 134 134 133 133 133 132 132 132 132 131 131 131 131 131 131 131 130 130 130 130 130 130 130 130 131 131 131 130 130 130 130 131 131 131 132 132 134 135 136 138 139 138 140 140 141 141 142 143 145 146 146 145 146 146 147 148 146 145 145 143 142 141 140 139 138 137 137 136 136 135 135 135 135 135 135 135 135 135 135 135 135 135 135 135 134 134 135 135 135 135 135 135 135 136 136 136 136 136 136 136 136 135 135 135 135 135 134 134 134 134 134 133 133 132 131 131 130 129 128 127 126 125 123 122 121 120 118 117 116 115 114 113 112 111 109 108 107 106 105 104 102 101 100 99 98 97 97 96 95 93 92 91 90 89 88 87 86 86 85 85 84 84 84
89 90 91 91 93 94 95 96 97 98 98 99 100 101 101 102 102 102 102 101 101 100 100 99 99 98 100 100 100 100 100 100 99 99 99 99 99 99 98 98 98 98 98 98 98 98 98 98 99 99 99 99 99 99 100 100 101 102 102 103 103 103 104 104 104 105 105 105 105 106 106 106 106 106 106 106 105 105 105 105 105 105 105 105 105 106 106 106 106 107 107 107 108 108 109 109 110 110 111 111 111 111 112 112 112 113 113 113 113 113 113 113 114 114 114 114 114 115 115 115 115 116 116 117 117 118 118 118 119 119 119 119 118 118 117 117 116 116 115 115 114 113 112 112 112 112 112 111 111 111 111 111 111 111 111 111 111 112 112 112 112 112 112 113 113 113 113 113 113 114 114 114 114 115 115 115 116 116 117 117 117 118 119 119 119 119 120 121 121 121 121 121 121 121 121 121 122 122 122 122 122 122 123 122 123 123 122 122 121 121 120 119 118 118 116 115 114 113 111 110 109 108 106 106 105 103 103 103 102 102 102 102 103 103 103 104 104 104 105 105 106 107 107 108 110 111 112 113 114 115 115 117 118 119 120 122 123 124 125 126 127 128 129 130 130 130 130 130 131 131 130 130 130 130 130 130 130 130 130 130 130 130 129 129 129 129 128 128 128 127 127 127 127 127 127 127 127 127 127 128 128 129 130 130 131 131 131 132 133 134 134 134 135 135 135 136 136 136 136 136 136 136 136 137 137 137 137 137 137 137 137 137 137 137 136 136 136 135 135 134 134 133 133 133 132 132 131 131 131 130 130 130 130 130 130 130 130 130 129 129 129 129 130 130 130 130 130 130 130 130 130 130 130 131 131 131 132 133 134 135 136 138 139 137 138 139 140 140 141 142 144 144 145 144 145 144 145 145 143 143 142 141 140 139 139 138 137 137 136 136 135 135 135 135 135 134 134 134 134 134 134 134 134 134 134 134 134 134 135 135 135 135 135 135 136 136 136 136 136 136 136 136 136 136 136 136 136 135 135 135 135 135 135 134 133 133 133 132 131 131 130 129 128 126 125 124 122 121 120 119 118 117 114 113 112 111 110 110 109 108 106 105 104 103 101 100 99 98 97 96 95 93 91 90 90 89 88 87 86 86 85 85 85 85 84
89 90 91 92 93 95 96 97 98 99 100 101 102 102 103 103 104 104 104 104 103 103 102 102 101 101 100 100 100 100 100 100 99 99 99 99 99 99 99 98 102 102 102 102 102 102 102 102 102 102 102 102 103 103 103 103 103 103 104 104 105 105 105 106 106 106 106 107 107 107 107 107 107 107 107 107 107 107 107 107 106 106 106 106 106 106 106 106 106 107 107 107 108 108 109 109 110 110 111 111 112 112 113 113 113 113 113 113 113 113 114 114 114 115 115 115 115 116 116 116 116 117 117 117 118 118 118 119 119 119 119 119 119 118 118 117 117 116 116 115 115 114 113 113 112 112 112 111 111 111 111 111 111 111 111 111 111 112 112 113 113 113 113 113 113 114 114 114 114 114 114 115 115 116 116 116 117 117 117 118 118 119 119 120 120 120 121 121 122 122 122 122 122 122 122 122 123 123 123 123 123 123 123 123 123 123 123 122 121 121 120 119 118 118 116 115 114 113 111 113 112 111 109 108 108 107 106 105 105 105 105 105 105 105 105 106 106 106 107 107 108 108 109 109 111 112 113 113 114 115 116 117 118 120 121 122 123 125 126 127 128 128 129 130 130 130 130 130 131 131 130 130 130 130 130 130 130 130 130 130 130 130 130 129 129 129 129 128 128 128 128 127 127 127 127 127 127 128 128 128 129 130 130 131 131 132 132 133 133 134 135 135 135 135 136 136 136 137 137 137 137 137 137 137 137 137 137 137 137 137 137 137 137 137 136 136 136 135 134 133 133 132 132 131 131 130 130 130 129 129 129 129 129 129 129 129 129 129 129 129 129 129 129 129 129 130 130 130 130 130 130 130 130 130 130 131 132 132 133 134 135 136 137 137 138 139 140 140 141 142 144 144 145 144 144 145 145 143 141 140 140 139 138 138 137 136 136 136 135 135 135 135 135 135 135 134 134 134 134 134 134 134 134 134 134 134 134 134 134 135 135 135 135 136 136 136 136 136 137 137 136 136 136 136 136 136 136 135 135 135 135 135 134 134 133 133 133 133 133 132 131 130 129 128 127 125 124 123 122 119 119 117 116 115 114 113 112 111 110 109 108 106 105 104 103 101 100 99 96 95 94 93 92 91 90 89 88 88 87 86 86 85 85 85 84
90 91 92 93 94 95 96 97 98 100 101 102 103 104 104 105 105 106 106 105 105 105 104 104 104 104 103 103 102 102 102 102 102 102 102 102 102 102 102 102 102 102 102 102 102 102 102 102 102 102 102 102 103 103 105 105 106 106 106 106 106 107 107 107 107 107 107 108 108 108 108 108 108 109 108 108 108 108 108 108 108 108 107 107 107 107 108 108 108 108 108 109 109 109 110 110 110 111 111 112 112 112 113 113 113 113 113 113 113 113 114 114 114 115 116 116 116 117 116 117 117 117 118 118 118 118 119 119 120 120 120 119 119 119 119 118 117 117 116 116 115 115 114 113 113 113 113 112 112 112 112 112 112 112 112 112 112 113 113 113 113 113 113 113 113 114 114 114 114 114 114 114 115 116 117 117 117 118 118 119 119 120 120 121 121 121 122 122 122 123 123 123 123 123 123 123 124 124 124 124 124 124 124 124 124 124 124 123 122 122 121 121 120 119 118 117 116 115 114 113 112 111 109 108 108 107 106 105 105 105 105 105 105 108 108 108 108 108 108 109 109 110 110 111 111 113 113 114 115 116 117 118 119 120 121 123 124 125 126 127 127 128 129 130 130 130 130 130 130 130 130 130 130 130 130 130 130 130 130 130 130 130 130 129 129 129 129 128 128 128 128 127 128 128 128 128 128 128 128 129 130 130 131 131 132 132 133 133 134 135 135 135 136 136 136 137 137 137 137 137 137 137 137 137 137 137 137 137 137 136 136 136 136 136 136 136 135 134 134 133 133 132 132 131 131 130 130 130 129 129 129 129 128 128 128 128 128 128 128 128 128 129 129 129 129 129 129 129 129 129 129 129 129 129 130 130 131 131 132 133 133 134 135 135 136 137 138 138 139 141 142 142 142 143 143 143 143 143 141 140 140 139 138 138 137 136 136 136 135 135 135 134 135 135 134 134 134 134 134 134 134 134 134 134 134 134 134 134 134 135 135 135 135 136 136 137 137 137 137 137 137 137 136 136 136 136 136 136 136 136 136 135 135 135 134 134 134 133 133 132 131 130 129 128 127 125 123 122 120 119 119 119 118 117 115 114 113 112 111 110 109 107 106 105 103 101 99 98 97 96 95 94 92 91 90 89 89 88 87 87 87 86 86 85 85
90 91 92 93 94 95 96 97 98 100 101 102 103 105 105 106 107 107 107 107 107 107 106 106 106 106 105 105 105 105 105 105 105 105 105 105 105 105 105 105 105 105 105 105 105 105 105 105 105 105 105 105 105 105 105 105 106 106 106 106 106 107 107 107 107 107 107 108 108 109 109 109 109 109 109 109 109 109 109 109 109 109 109 109 109 109 109 109 109 109 110 110 110 110 111 111 111 112 112 112 112 113 113 114 114 114 114 114 114 114 115 115 115 116 116 116 116 116 117 116 117 117 118 118 118 118 119 119 120 120 120 120 119 119 119 118 118 117 116 116 115 115 114 114 113 113 113 113 113 113 113 113 113 113 113 113 113 114 113 114 114 114 114 114 114 114 114 114 114 115 115 115 115 116 117 117 117 118 118 119 119 120 120 121 121 121 122 123 123 124 124 124 124 124 124 124 125 125 125 125 125 125 125 125 125 125 125 124 124 123 123 122 122 121 120 119 118 118 116 115 114 113 112 112 111 110 109 108 108 108 108 108 108 108 108 108 108 108 108 109 109 110 110 111 111 113 113 115 116 117 117 118 119 120 121 122 123 125 125 126 127 128 129 130 130 130 130 130 130 130 130 130 130 130 130 130 130 130 130 130 130 130 130 130 130 130 129 129 129 128 128 128 128 128 128 128 128 128 128 129 130 130 131 131 132 132 133 134 135 135 136 136 136 136 137 137 137 138 138 138 138 137 137 137 137 137 137 136 137 136 136 136 136 135 135 135 133 133 132 132 131 131 130 130 129 129 129 128 128 128 128 128 128 128 128 128 128 128 128 128 128 129 129 129 129 129 129 129 129 129 129 129 129 129 129 130 130 130 131 132 132 133 134 134 135 135 136 136 137 136 137 137 137 137 137 138 137 137 138 138 138 137 137 136 136 136 135 135 135 135 134 134 135 135 134 134 134 134 134 134 134 134 134 134 134 134 134 134 134 135 135 136 136 136 136 137 137 137 137 137 137 137 137 136 137 137 136 136 136 136 136 136 136 136 135 135 135 134 134 133 132 132 131 128 127 126 125 123 122 121 120 119 118 117 115 114 113 112 111 110 109 107 105 103 102 101 100 99 97 96 95 94 93 92 91 90 89 88 88 88 87 87 86 86 86
91 92 93 94 94 96 97 98 99 100 101 102 103 104 105 105 106 107 107 107 107 107 106 108 108 108 108 108 107 107 107 107 107 107 107 108 108 108 108 108 108 108 108 108 108 108 108 108 108 108 108 108 108 108 108 107 107 107 107 107 108 108 108 108 108 108 108 108 109 109 109 109 109 109 109 109 109 109 109 109 109 109 109 110 110 110 110 110 110 110 111 111 111 111 112 112 112 113 113 113 113 114 114 114 115 115 115 115 115 115 116 116 116 116 117 117 117 117 117 117 118 118 118 119 119 119 119 120 120 120 120 120 119 119 119 118 118 117 117 116 115 115 114 114 114 114 114 114 114 114 114 114 114 114 114 114 114 114 114 114 115 115 115 115 115 115 115 115 115 115 115 115 116 116 117 117 118 119 119 119 120 120 121 121 122 122 123 123 123 124 124 124 124 124 124 124 125 125 125 125 125 126 126 126 126 126 126 125 125 125 124 124 123 123 122 121 121 120 119 118 117 116 115 115 114 113 113 112 111 111 111 110 110 110 110 110 111 111 111 111 111 112 112 112 113 113 114 115 116 117 117 118 119 120 121 122 123 125 125 126 127 128 128 129 129 130 130 130 130 130 130 130 130 130 130 130 130 130 130 130 130 130 130 130 130 130 130 130 129 129 129 129 129 129 129 129 129 129 129 130 130 131 131 132 132 133 133 134 135 135 136 136 136 136 137 137 137 138 138 138 138 137 137 137 137 137 136 136 136 135 135 135 135 135 134 133 132 132 131 130 130 130 129 129 128 128 127 127 127 127 127 127 127 127 127 127 127 127 128 128 128 128 128 129 129 129 129 129 129 129 129 129 129 129 129 130 130 130 131 132 131 132 132 133 133 133 134 134 135 135 135 135 136 136 136 136 136 136 136 136 136 136 136 135 135 135 135 135 135 134 134 135 135 135 135 134 134 134 134 134 134 134 134 134 134 134 134 134 134 135 135 136 136 136 136 137 137 137 137 137 137 137 137 137 137 137 137 137 137 137 137 136 136 137 136 136 136 136 135 134 133 132 131 130 129 128 127 125 124 123 122 121 119 118 117 116 115 114 111 110 108 107 106 104 102 101 100 99 97 96 95 94 93 92 91 90 89 88 88 88 88 88 88 88 88
91 92 93 93 95 96 98 99 100 101 102 103 104 105 106 107 107 108 108 108 108 108 108 108 108 108 108 108 107 107 107 107 107 107 108 107 108 108 110 110 110 110 110 110 110 110 110 110 110 110 110 110 109 109 109 109 109 109 109 109 109 109 109 109 109 109 109 109 110 110 110 110 110 110 110 110 110 110 110 110 110 110 110 110 110 110 110 110 110 110 111 111 111 111 112 112 112 114 114 114 114 115 115 115 116 116 116 116 116 117 117 117 117 117 117 118 118 118 118 118 118 119 119 119 119 120 120 120 120 120 120 120 120 119 119 119 118 118 117 117 116 116 114 114 114 114 114 114 114 114 114 114 114 114 114 114 115 115 115 115 115 115 116 116 116 116 116 116 116 116 116 116 117 117 117 118 118 119 119 120 120 121 121 122 122 123 123 124 124 124 125 125 125 125 125 125 125 125 125 125 126 126 126 126 126 126 126 125 125 125 124 124 123 123 122 123 123 122 121 120 120 119 118 117 117 116 115 115 114 113 113 113 113 113 113 113 113 113 113 113 113 114 114 114 114 115 115 116 117 117 118 119 119 120 121 122 123 124 125 126 127 128 128 129 129 130 130 130 130 130 130 130 130 130 130 130 130 130 130 130 131 130 130 130 130 130 131 131 130 130 130 130 130 130 130 130 130 130 130 131 131 132 132 133 133 134 134 135 135 136 136 137 137 137 137 138 138 138 138 138 138 137 137 137 137 137 136 136 136 135 135 135 135 135 133 132 131 131 130 129 129 128 128 127 127 127 126 126 126 126 126 126 126 126 126 126 127 127 127 127 127 128 128 128 128 129 129 129 129 129 129 129 129 129 129 129 129 130 130 131 131 132 132 133 133 133 134 135 135 135 135 135 136 134 134 134 134 135 135 135 135 135 135 134 135 134 134 135 135 135 135 135 135 135 135 135 135 135 134 135 135 134 134 134 134 134 134 134 134 135 135 136 136 136 136 137 137 137 137 137 137 137 137 137 137 137 137 137 137 137 137 136 136 137 137 137 137 137 136 135 134 134 133 132 131 130 128 127 126 125 124 123 121 120 119 116 115 114 112 111 109 108 107 105 103 102 101 99 98 96 95 94 93 91 91 90 89 89 88 88 88 88 88 88 88
92 92 93 94 95 96 97 98 101 102 103 104 105 106 107 108 108 109 109 109 110 110 110 110 109 109 109 109 109 109 109 109 109 109 110 110 110 110 110 110 110 110 110 110 110 110 110 110 110 110 110 110 111 111 111 111 111 110 110 110 110 110 110 110 110 110 110 110 111 111 111 111 111 111 111 111 111 111 111 111 111 111 111 111 111 111 111 111 111 111 112 112 112 113 113 113 113 114 114 114 114 115 115 115 116 116 116 116 116 116 117 118 118 118 118 118 119 119 119 119 119 120 120 120 120 120 120 120 120 120 120 120 120 119 119 119 118 118 117 117 116 116 116 115 115 115 115 115 115 115 115 115 115 115 115 115 115 115 115 115 115 115 116 116 116 116 116 116 116 116 117 117 117 118 118 118 119 120 120 121 121 122 122 123 123 124 124 124 125 125 125 125 125 125 125 126 126 126 126 126 126 126 126 126 126 126 126 126 126 126 125 125 125 124 124 123 123 122 121 120 120 119 118 117 117 116 115 115 114 116 116 115 115 115 115 115 115 115 115 115 115 115 115 115 116 116 116 117 117 118 118 119 120 121 121 122 123 124 125 126 127 127 128 128 129 129 130 130 130 130 130 130 130 130 130 130 130 130 130 130 131 130 130 130 130 130 131 131 130 131 131 131 131 131 131 131 131 131 131 132 132 132 133 133 134 134 134 135 135 136 136 137 137 137 137 138 138 138 138 138 138 137 137 137 137 137 136 136 136 135 135 135 135 134 133 132 131 131 130 129 129 128 128 127 127 127 126 126 125 125 125 125 125 125 125 125 126 126 126 127 127 128 128 128 128 128 128 128 128 128 128 128 128 129 129 129 129 129 130 130 130 131 131 132 132 133 133 133 133 133 134 134 134 134 134 134 134 135 135 135 135 135 135 135 135 134 134 135 135 135 135 135 135 135 135 135 135 135 135 135 134 134 134 134 134 134 134 135 135 135 135 136 136 136 136 137 137 137 137 137 137 137 137 137 137 137 137 137 137 137 137 137 137 137 137 137 137 136 136 135 134 134 133 132 131 130 128 129 128 127 126 124 122 120 119 118 117 115 114 112 110 109 108 106 104 102 101 99 98 97 94 93 92 92 91 90 89 89 89 89 89 89 89 89 89
92 92 93 94 95 96 98 99 100 102 103 105 106 107 108 109 109 110 110 111 111 111 111 111 111 111 111 111 111 111 111 111 111 111 111 111 112 112 112 112 112 112 112 112 112 112 112 112 112 112 112 111 111 111 111 111 111 110 110 110 110 110 110 110 110 111 111 111 111 112 112 112 112 112 112 112 112 112 112 112 112 112 112 112 112 112 112 112 112 113 113 113 113 114 114 114 114 115 115 115 115 116 116 116 117 117 117 117 117 118 118 118 118 118 118 118 119 119 119 119 119 120 120 120 120 120 121 121 121 120 120 120 120 120 119 119 119 118 118 117 117 116 116 116 116 116 116 116 116 116 116 116 116 116 116 116 116 116 116 116 116 116 116 116 117 117 117 117 117 117 117 117 117 118 118 118 119 120 120 120 121 122 122 123 124 124 125 125 125 126 126 126 126 126 126 126 127 127 127 127 127 127 127 127 127 127 127 127 127 127 126 126 126 126 125 125 124 124 123 123 122 121 120 120 119 118 118 117 117 116 116 115 115 115 115 115 115 115 115 115 115 115 115 117 117 117 117 118 118 118 119 119 120 121 121 122 123 124 124 125 126 126 127 128 129 129 129 130 130 130 130 130 130 130 130 130 131 131 131 131 131 131 131 131 131 131 131 131 131 131 131 131 131 131 131 131 131 131 131 132 132 132 133 134 134 135 135 136 136 136 137 137 137 137 137 137 137 138 137 137 137 137 137 137 137 136 136 135 135 135 135 134 133 133 132 131 131 130 129 128 128 127 127 126 126 125 125 125 125 125 125 125 125 125 125 125 126 126 126 127 127 128 127 127 128 128 128 128 128 128 128 128 128 128 128 128 128 129 129 129 130 130 130 131 131 131 132 132 132 132 132 133 133 133 133 133 133 133 134 134 134 134 134 134 134 134 134 135 135 135 135 135 135 135 135 135 135 135 135 135 134 135 135 135 134 135 135 135 135 135 135 136 136 136 136 136 137 137 137 137 137 137 137 137 137 137 137 137 137 137 138 138 138 138 138 138 138 137 137 136 136 135 134 134 132 131 130 129 128 127 124 123 122 120 119 118 117 115 114 112 112 110 108 107 105 103 101 98 97 96 94 93 92 92 91 90 90 90 90 90 90 90 90 90 90
92 93 94 95 95 96 98 99 100 102 103 104 105 106 107 109 109 110 110 111 112 112 112 112 112 112 112 112 112 112 112 112 113 113 113 113 113 113 114 114 114 114 114 114 114 114 114 114 113 113 113 113 112 112 112 112 112 111 111 111 111 111 111 111 111 111 111 111 111 112 112 112 112 112 112 112 112 112 112 113 113 113 113 113 113 113 113 113 113 114 114 114 114 114 115 115 115 116 116 116 116 117 117 117 117 118 118 118 118 118 119 119 119 119 119 119 119 119 120 120 120 120 120 120 121 120 121 121 121 120 120 120 120 120 119 119 119 118 118 118 117 117 116 116 116 116 117 117 117 117 117 117 117 117 117 117 117 117 117 117 117 117 117 117 117 117 117 118 118 118 118 118 118 118 119 119 120 120 121 121 122 123 123 124 124 124 125 125 125 126 126 126 126 126 126 126 126 127 128 128 128 128 128 128 128 128 128 128 128 128 127 127 127 127 127 126 126 125 125 124 124 123 123 122 121 121 120 120 119 119 118 117 117 117 117 117 116 117 117 117 117 117 117 117 117 117 117 117 118 118 119 119 120 121 121 122 123 123 124 125 125 126 127 127 128 129 129 129 129 130 130 130 130 131 131 131 131 131 131 131 131 131 131 131 131 132 132 132 132 132 132 132 132 132 132 132 132 132 132 132 133 133 133 134 134 135 135 136 136 136 137 137 137 137 137 137 137 137 137 137 137 136 136 136 136 135 135 135 135 134 134 134 133 132 131 131 130 129 128 128 127 127 126 126 125 125 125 124 124 124 124 124 124 124 124 125 125 126 126 126 127 127 127 127 128 128 128 128 128 128 128 128 128 128 128 128 128 128 128 129 129 129 130 130 130 131 131 131 131 131 131 131 132 132 132 132 132 132 133 133 133 133 134 134 134 134 134 135 135 135 135 136 136 136 136 136 135 135 135 135 134 135 135 135 134 135 135 135 135 135 135 136 136 136 136 137 137 137 137 137 137 137 137 138 138 138 138 138 138 138 138 138 138 138 139 138 138 138 138 137 137 136 136 135 134 133 132 130 129 127 126 125 123 122 121 119 118 117 115 113 112 110 108 107 103 101 100 98 97 96 94 93 92 92 91 91 90 90 90 90 90 90 91 91 91
92 93 94 95 96 97 98 100 101 102 103 104 106 107 108 109 110 110 111 111 112 112 112 112 112 112 112 112 112 112 112 112 112 113 114 114 115 115 115 115 115 115 115 115 115 115 115 115 115 114 114 114 114 113 113 113 112 112 112 112 112 112 112 112 112 112 112 112 112 112 112 112 112 112 113 113 113 113 113 113 113 113 113 113 113 113 113 113 113 114 114 114 114 115 116 116 116 116 117 117 117 118 118 118 118 118 119 119 119 119 119 120 120 120 120 120 120 120 120 120 121 121 121 121 121 121 121 121 121 121 121 120 120 120 119 119 119 118 118 118 117 117 116 116 116 116 117 117 117 117 117 117 118 118 118 118 118 118 118 118 118 118 118 118 118 118 118 118 119 119 119 119 119 119 120 120 121 121 121 122 122 123 124 124 125 125 125 126 126 126 127 127 127 127 127 127 127 127 127 128 128 128 128 128 128 128 128 128 128 128 127 128 128 128 128 127 127 127 126 126 126 125 125 124 123 123 122 122 121 121 120 120 119 119 118 118 118 118 118 118 118 118 118 118 118 118 118 118 119 119 119 120 120 121 121 122 122 123 124 125 125 126 127 127 128 129 129 129 129 130 130 130 130 131 131 131 131 132 132 132 132 132 132 132 132 132 132 133 133 133 133 133 132 133 133 133 132 133 132 133 133 133 134 134 135 135 135 136 136 136 137 137 137 137 137 137 137 137 137 137 137 136 136 136 136 135 135 135 135 134 134 133 132 131 131 130 129 129 128 127 127 126 125 125 125 124 124 124 124 124 124 124 124 124 124 125 125 125 126 126 126 127 127 127 127 127 128 128 127 127 128 127 128 128 128 128 128 128 128 129 129 130 130 130 130 131 131 131 131 131 131 131 131 131 131 132 132 132 132 133 133 133 134 134 134 134 135 135 135 136 136 136 136 136 136 136 136 136 135 135 135 135 135 135 135 135 135 135 135 135 135 136 136 136 136 137 137 137 137 137 137 137 137 138 138 138 138 138 138 138 139 139 139 139 139 139 139 139 139 138 138 137 137 136 135 134 133 131 130 129 128 127 125 124 122 121 120 118 116 115 113 110 108 106 103 102 100 99 97 96 94 93 92 92 91 91 90 90 90 90 90 90 91 91 91
92 93 94 95 96 96 99 100 102 103 104 105 106 107 108 109 110 111 112 112 112 113 113 113 113 113 113 113 113 113 113 113 113 114 114 114 114 115 115 115 115 115 115 115 115 115 115 115 116 116 115 115 115 115 114 114 113 113 113 113 112 112 112 112 112 112 112 112 113 113 113 113 113 113 114 114 114 114 114 114 114 114 114 114 114 114 114 114 114 115 115 115 115 115 116 116 116 116 117 117 117 117 118 118 118 118 119 120 120 120 120 121 121 121 121 121 121 121 121 121 122 122 121 121 122 122 121 121 121 121 121 121 120 120 120 119 119 119 118 118 118 118 117 117 117 117 117 117 117 118 117 118 118 118 118 118 118 118 118 118 118 118 118 118 118 118 119 119 119 120 120 120 120 120 121 121 121 122 122 123 123 124 124 125 126 126 126 126 127 127 127 127 128 128 128 128 128 128 128 128 129 128 129 129 129 129 129 129 129 128 128 128 128 128 128 128 127 127 126 126 126 125 125 124 123 125 124 124 123 123 122 122 121 120 120 120 119 119 119 119 119 119 119 119 119 119 119 119 119 120 120 120 120 121 121 122 122 123 124 124 125 126 127 127 128 129 129 129 129 130 130 130 130 131 131 131 131 132 132 132 132 132 132 132 132 133 133 133 133 133 134 133 133 133 133 133 133 133 133 133 134 134 134 135 135 135 136 136 136 137 137 137 137 137 137 137 136 136 136 136 136 136 136 135 135 135 135 134 134 134 133 133 132 131 131 130 129 129 128 127 127 126 125 125 124 124 124 124 123 123 123 123 123 124 124 124 124 125 125 126 126 126 126 127 127 127 127 127 127 127 127 127 127 127 127 128 128 128 128 128 129 129 129 129 130 130 130 130 130 131 131 131 131 131 131 132 132 132 132 133 133 133 133 134 134 134 135 135 135 136 136 136 136 136 136 136 136 136 135 135 135 135 135 135 135 135 135 135 135 135 136 136 136 136 136 137 137 137 137 137 137 137 138 138 138 138 138 138 138 138 139 139 139 139 139 139 139 139 139 138 138 138 137 137 136 135 134 133 132 130 129 128 127 125 124 122 121 119 116 114 112 110 108 106 104 102 100 99 97 96 95 93 92 92 91 91 91 91 91 91 91 91 92 92 92
92 93 94 95 96 97 98 100 101 102 104 106 107 108 109 110 111 112 112 113 113 114 114 114 114 114 114 114 114 114 114 114 114 115 115 115 115 115 116 116 116 116 116 116 116 116 116 116 116 116 115 115 115 115 114 114 114 113 113 113 112 113 113 113 113 113 113 113 113 114 114 113 113 114 114 114 114 115 114 114 115 115 115 115 115 115 115 115 115 115 116 116 116 116 116 116 117 117 117 118 118 118 118 119 119 119 119 120 120 120 120 121 121 121 121 121 121 121 121 122 122 122 122 122 122 122 122 122 121 121 121 121 121 120 120 120 120 119 119 119 118 118 118 118 118 118 118 118 118 118 118 118 119 119 119 119 119 119 119 119 119 119 119 119 119 119 119 119 119 120 120 120 120 120 121 121 121 122 122 124 124 125 125 125 126 126 127 127 127 128 128 128 129 129 129 129 129 129 129 129 130 129 129 130 130 130 129 129 129 129 129 129 129 129 129 129 128 128 128 127 127 127 126 126 125 125 124 124 123 123 122 122 121 120 120 120 119 119 120 121 121 120 120 121 120 120 120 120 120 121 121 121 121 121 122 122 122 123 124 124 125 125 126 126 127 128 129 129 129 130 130 130 130 131 131 131 131 132 132 132 132 132 132 132 132 133 133 133 133 133 134 133 133 133 133 133 133 134 134 134 134 134 135 135 136 136 136 137 137 137 137 137 137 137 137 136 136 136 136 135 135 135 135 135 135 134 134 134 133 133 132 132 132 131 130 129 129 128 127 127 126 126 125 125 124 124 124 124 123 123 123 123 123 124 124 124 124 124 125 125 126 126 126 127 127 127 127 127 127 127 127 127 127 127 127 127 128 128 128 128 128 129 129 129 129 129 130 130 130 130 130 130 131 131 131 132 132 132 132 132 133 133 133 134 134 134 135 135 135 136 136 136 136 136 136 136 136 136 136 135 135 135 135 135 134 134 135 135 135 135 135 135 136 136 136 136 137 137 137 137 137 137 138 138 138 138 138 138 138 139 139 139 139 139 139 139 139 139 139 139 138 138 137 137 136 135 134 133 132 130 129 128 127 125 124 122 121 119 117 115 113 111 109 107 105 103 101 99 98 96 95 92 92 91 91 91 91 91 91 91 91 92 92 93 93
92 93 94 95 96 97 98 100 101 102 104 104 106 107 109 110 111 112 113 114 114 114 114 115 115 115 115 115 115 115 115 115 115 115 116 116 116 116 116 116 117 117 117 117 117 117 117 117 117 116 116 116 116 116 115 115 115 114 114 113 113 113 113 113 113 113 113 113 113 114 114 113 113 114 114 115 115 115 115 115 115 116 116 116 116 116 116 116 116 116 116 116 117 117 117 117 118 118 118 118 119 119 119 119 120 120 120 120 121 121 121 121 121 122 122 122 122 122 122 122 122 122 122 122 122 122 122 122 121 121 121 121 121 120 120 120 120 120 120 119 119 119 119 119 119 119 119 119 119 119 119 119 120 120 120 120 120 120 120 120 120 120 120 120 120 120 120 120 120 120 121 121 121 121 121 122 122 123 123 124 124 125 125 125 126 126 127 127 127 128 128 128 129 130 130 130 130 130 130 130 130 130 130 130 130 130 130 130 130 130 130 130 130 130 130 130 129 129 129 128 128 128 128 127 127 126 126 125 125 124 124 123 123 122 121 121 121 120 120 121 121 120 120 121 120 120 120 120 120 121 121 121 122 122 122 122 122 123 123 124 124 125 126 126 127 128 128 129 129 130 130 130 131 131 131 132 132 132 132 132 132 133 133 133 133 133 134 134 134 134 134 134 134 134 134 134 134 134 134 134 134 134 135 135 136 136 136 137 137 137 137 137 137 137 136 136 135 135 135 135 134 134 134 134 134 134 133 133 133 132 132 131 131 130 129 129 129 128 127 127 126 125 125 124 124 124 124 124 123 123 123 123 123 123 123 124 124 124 125 125 126 126 126 127 127 127 127 127 127 127 127 127 127 127 127 128 128 128 128 128 128 129 129 129 129 129 129 129 130 130 130 130 131 131 131 131 131 132 132 132 133 133 133 134 134 134 134 135 136 136 136 136 136 136 136 136 136 136 136 135 135 135 135 135 134 135 135 135 135 135 135 135 135 135 136 136 136 136 136 136 137 137 138 138 138 138 138 138 139 139 139 139 139 139 140 140 140 140 139 139 139 139 138 137 137 136 135 134 133 132 131 129 127 125 123 122 121 119 117 115 113 111 109 107 105 103 101 99 96 95 94 93 92 91 91 91 91 91 91 91 92 92 93 94 94
92 93 95 96 96 97 98 100 101 102 104 105 106 108 109 110 111 112 113 114 114 114 114 115 115 115 115 115 115 116 116 116 116 116 116 116 116 117 117 117 117 117 117 117 118 118 118 118 117 117 117 117 116 116 116 116 115 115 114 114 114 114 114 113 114 114 114 114 114 114 114 114 114 114 115 115 115 115 115 115 115 116 116 116 116 116 116 116 117 117 117 117 117 117 118 118 118 119 119 119 119 120 120 120 120 121 121 121 121 121 122 122 122 122 122 123 123 123 123 123 123 123 122 122 122 122 122 122 122 122 121 121 121 121 120 120 120 120 120 120 119 119 119 119 119 119 119 120 120 120 120 121 121 121 121 121 121 121 121 121 121 121 121 121 121 121 121 121 121 121 121 122 122 122 122 123 123 124 124 125 125 125 126 126 127 127 127 128 128 129 129 129 130 130 130 130 130 130 130 130 130 130 130 130 130 130 131 131 131 131 131 131 131 131 131 130 130 130 130 129 129 129 129 128 128 128 127 127 126 126 125 125 124 124 122 122 122 122 122 122 122 122 122 122 122 121 121 121 121 121 122 122 122 122 122 122 122 123 123 124 124 125 126 126 127 128 128 129 129 130 130 131 131 131 132 132 132 132 133 133 133 133 133 133 134 134 134 134 135 135 135 135 134 135 135 135 135 134 135 134 135 135 135 135 136 136 136 137 137 137 137 137 137 137 136 136 135 135 135 135 134 134 134 134 133 133 133 133 132 132 131 131 131 130 129 129 128 128 127 126 126 125 125 125 124 124 124 124 123 123 123 123 123 124 124 124 124 125 125 126 126 126 126 126 126 127 127 127 127 127 127 127 127 127 127 128 128 128 128 128 128 129 129 129 129 129 129 129 129 130 130 130 130 131 131 131 131 131 132 132 132 133 133 134 134 134 135 136 136 136 137 137 137 137 137 137 136 136 136 136 135 135 135 135 135 135 135 135 135 135 135 135 135 135 136 136 136 136 136 137 137 137 138 138 138 138 138 139 139 139 139 139 139 140 140 140 140 140 140 140 140 139 139 138 138 137 136 135 134 133 131 129 128 127 125 124 122 120 119 117 115 113 111 108 106 102 100 98 96 95 94 93 92 91 91 91 91 91 91 91 92 93 94 95 95
93 93 94 95 96 97 99 100 101 103 104 105 107 108 109 110 111 112 113 114 114 115 115 115 115 115 115 115 116 116 116 116 116 116 116 116 116 117 117 117 117 117 118 118 118 118 118 118 118 118 118 117 117 117 116 116 116 115 115 115 114 114 114 114 114 114 114 114 115 115 115 115 115 115 115 116 116 116 116 116 116 116 116 116 117 116 116 116 117 117 117 117 117 117 118 118 118 119 119 119 119 120 121 121 121 122 122 122 122 122 122 123 123 123 123 123 123 123 123 123 123 123 123 123 123 123 123 122 122 122 122 121 122 121 121 121 121 121 120 120 120 120 120 120 120 120 120 120 120 120 120 121 121 121 121 121 121 121 121 121 122 122 122 122 122 122 122 122 122 122 122 122 123 123 123 124 124 125 125 126 126 126 127 127 127 128 128 128 129 129 130 130 131 131 131 131 131 131 131 131 131 131 131 131 131 131 131 131 131 131 131 131 131 131 131 130 130 130 130 130 130 130 130 129 129 129 128 128 127 127 126 126 125 125 124 123 123 123 123 123 123 123 123 123 123 122 122 122 122 122 122 122 122 122 122 123 123 123 124 124 124 125 126 126 127 128 128 129 129 130 130 131 131 131 132 132 132 132 133 133 134 134 134 134 134 135 135 135 135 136 136 135 135 135 135 135 135 135 135 135 135 135 136 136 136 137 137 137 137 137 138 137 137 136 136 136 135 135 135 134 134 134 134 133 133 133 133 132 132 132 131 131 131 130 129 129 128 127 127 126 126 126 125 125 124 124 124 124 124 124 123 124 124 124 124 124 124 125 125 126 126 126 126 127 127 127 127 127 127 127 127 127 127 128 128 128 128 128 128 128 129 129 129 129 129 129 129 129 129 130 130 130 130 131 131 131 131 131 132 132 132 133 133 134 134 135 136 136 136 136 137 137 137 137 137 137 137 136 136 136 135 135 135 134 134 135 135 134 134 135 135 135 135 135 135 136 136 136 136 137 137 137 138 138 138 138 138 139 139 139 139 139 140 140 140 140 141 141 141 141 140 140 140 139 139 138 137 135 134 133 132 131 129 128 126 125 123 122 120 118 116 114 111 106 104 102 100 98 97 95 94 92 92 91 91 91 91 91 92 92 92 93 94 95 95
93 94 95 95 96 97 98 99 101 103 104 106 107 108 109 111 111 112 113 114 114 115 115 116 116 116 116 116 116 116 116 116 116 116 117 117 117 117 117 118 118 118 118 118 118 118 118 118 118 118 118 117 117 117 116 116 116 116 116 115 115 115 115 115 115 115 115 115 115 116 116 116 116 116 116 117 117 117 117 117 117 117 117 117 117 117 117 117 117 117 118 118 118 118 118 118 119 119 119 120 120 120 121 121 121 122 122 122 122 122 122 123 123 123 124 124 124 124 124 124 124 124 124 124 123 123 123 123 123 122 122 122 122 121 121 121 121 121 121 121 121 121 121 121 121 121 121 121 121 121 121 122 122 122 122 122 122 122 122 122 122 122 122 122 122 122 122 122 122 122 122 122 123 124 124 125 125 125 126 126 127 127 128 128 128 129 129 129 130 130 131 131 132 132 132 132 132 132 132 132 132 132 132 132 132 132 132 132 132 132 131 131 131 131 131 131 131 131 131 130 130 130 130 129 129 129 128 128 127 127 126 126 126 126 125 124 124 124 124 124 124 124 124 124 124 123 123 123 123 123 123 123 123 123 123 123 123 123 124 124 124 125 125 126 126 127 128 129 129 130 130 131 131 132 132 132 133 133 133 133 134 134 134 134 134 135 135 135 135 136 136 136 136 136 136 136 136 136 136 136 136 136 136 136 137 137 137 137 137 137 138 137 137 136 136 135 135 134 134 133 133 133 133 133 133 133 132 132 131 131 131 130 130 129 129 129 128 127 127 126 126 126 125 125 124 124 124 124 124 124 124 124 124 124 124 124 125 125 126 126 126 126 127 127 127 127 127 127 127 127 127 127 128 128 128 128 128 128 128 129 129 129 129 129 129 129 129 129 130 130 130 130 130 131 131 131 131 131 132 132 132 133 133 134 134 135 136 136 136 136 137 137 137 137 137 137 137 136 136 135 135 135 135 134 134 134 134 134 134 134 134 134 135 135 135 135 136 136 136 137 137 137 138 138 138 138 138 139 139 139 140 140 140 140 140 140 141 141 141 141 140 140 140 139 138 137 136 135 135 134 133 132 131 129 128 126 124 123 121 119 115 112 110 107 105 103 101 99 97 95 94 93 92 92 91 91 91 91 92 92 93 93 94 95 96
93 94 95 95 96 97 98 99 101 102 103 105 106 109 109 111 112 113 113 114 115 115 116 116 116 116 116 116 117 117 117 117 117 117 117 117 118 118 118 118 118 118 119 119 119 119 119 119 119 119 118 118 118 118 118 117 117 116 116 115 115 115 115 115 115 115 115 115 115 116 116 116 117 117 117 117 118 118 118 118 118 118 118 118 118 118 118 118 118 118 118 118 118 119 119 119 120 120 120 120 120 121 121 122 122 122 122 123 123 123 123 123 124 124 124 124 124 124 124 124 124 124 124 124 123 123 123 123 123 123 123 123 122 122 122 122 122 122 122 122 122 122 122 122 121 121 122 122 122 122 123 123 123 123 123 123 123 123 123 123 123 123 123 123 123 123 123 123 123 123 123 123 123 124 124 124 125 125 126 126 127 127 128 128 128 129 130 130 131 131 131 132 132 133 133 133 133 133 133 133 133 133 133 133 133 133 133 132 132 132 132 132 132 132 132 132 132 131 131 131 131 131 131 130 130 130 129 129 128 128 127 127 126 126 125 125 124 124 124 124 124 124 124 124 124 124 124 124 123 123 123 124 124 124 124 124 124 124 124 124 124 125 125 126 126 127 128 129 129 130 131 131 131 132 132 133 133 133 134 134 134 134 134 135 135 136 136 136 136 136 137 136 136 136 136 136 136 136 136 136 136 136 136 136 137 137 138 138 138 138 138 137 137 136 136 135 135 134 134 133 133 132 132 132 132 132 131 131 131 131 130 130 130 129 129 128 128 127 127 127 126 125 125 125 125 125 124 124 124 124 124 124 124 124 124 124 125 125 126 126 126 126 127 127 127 127 127 127 127 127 128 128 128 128 128 129 129 129 128 129 129 129 129 129 129 129 130 130 130 130 130 130 130 130 131 131 131 131 132 132 132 133 134 134 134 135 135 136 136 136 137 137 137 137 137 137 137 136 136 135 135 135 135 134 134 134 134 134 134 134 134 134 134 135 135 135 135 136 136 136 137 137 138 138 138 138 138 139 139 139 140 140 140 140 140 141 141 141 141 141 141 141 140 139 139 138 137 136 135 134 133 132 131 129 128 126 124 121 119 117 115 114 111 108 106 103 101 99 97 95 94 93 92 91 91 91 91 91 92 92 93 94 95 95 96
92 94 95 96 97 97 98 100 101 102 103 105 106 107 109 109 112 113 113 114 115 115 116 116 116 117 117 117 117 117 117 117 117 117 117 118 118 118 118 118 118 119 119 119 119 119 119 119 119 119 119 119 118 118 118 117 117 117 117 116 116 116 116 116 116 116 116 116 116 116 116 116 117 117 117 117 118 118 118 118 118 118 119 119 119 119 118 118 119 118 118 119 119 119 120 120 120 120 121 121 121 121 122 122 122 123 123 123 123 124 124 124 124 124 124 124 125 125 125 125 124 124 124 124 124 124 124 123 123 123 123 123 123 122 122 122 122 122 122 122 122 122 122 123 122 122 123 123 123 123 124 124 124 124 124 124 124 124 124 124 124 124 124 124 124 124 124 124 124 124 124 124 124 125 125 125 126 127 127 127 128 128 129 129 129 130 130 130 131 131 131 132 132 133 133 133 133 133 133 134 134 134 133 133 133 133 133 132 132 132 132 132 132 132 132 132 132 132 132 132 132 131 132 131 131 131 130 130 129 128 128 128 127 126 126 125 125 124 124 125 125 125 125 125 125 124 124 124 123 123 123 124 124 124 124 124 124 124 125 125 125 125 126 126 127 127 128 129 130 130 131 131 131 132 133 133 134 134 134 134 135 135 135 135 136 136 136 136 137 137 137 137 137 137 137 137 136 136 137 137 137 137 137 137 137 137 138 138 138 138 137 137 137 136 136 135 135 134 134 133 133 132 132 132 132 131 131 131 130 130 130 130 129 129 129 128 128 128 127 127 126 126 126 126 125 125 125 125 124 124 124 124 124 124 124 125 125 125 126 126 127 127 127 127 127 127 127 127 127 127 128 128 128 128 128 129 129 129 129 129 129 130 130 130 130 130 130 130 130 130 130 130 130 131 131 131 131 132 132 132 133 133 134 134 134 135 136 136 136 136 137 137 137 137 137 137 136 136 136 136 135 135 135 134 134 134 134 134 134 134 134 134 134 135 135 135 135 135 136 136 137 137 138 138 138 138 139 139 139 139 140 140 140 141 141 141 141 141 142 142 141 141 140 140 140 139 138 137 136 135 134 133 132 130 129 126 124 122 120 118 116 114 111 108 106 103 101 99 97 95 93 92 92 91 91 91 91 92 92 93 93 94 95 96 97
92 93 94 95 96 98 99 100 101 102 104 105 106 108 109 110 111 112 113 114 115 116 116 116 116 117 117 117 117 117 117 117 117 117 117 118 118 118 119 119 119 119 119 119 119 120 120 120 120 119 119 119 119 119 118 118 118 118 117 117 117 117 117 117 117 117 117 117 117 117 117 117 118 117 118 118 118 119 119 119 119 119 119 119 119 119 118 118 119 118 118 118 119 119 120 120 121 121 121 121 122 122 122 122 123 123 124 124 124 124 124 124 125 125 125 125 125 125 125 125 125 125 125 124 124 124 124 124 124 123 123 123 123 123 123 122 122 122 122 122 122 122 122 123 122 122 123 123 123 123 124 124 124 125 125 125 125 125 125 125 125 125 125 125 125 125 125 125 125 125 125 126 126 126 126 127 127 127 128 129 129 129 130 130 130 131 131 131 132 132 133 133 133 134 134 134 134 134 134 134 134 134 133 133 133 133 133 133 132 132 132 132 132 132 132 132 133 132 132 132 132 132 132 132 132 132 131 130 130 129 129 128 127 127 126 126 125 125 125 125 125 125 125 125 125 125 125 125 124 124 124 124 124 124 124 125 125 125 125 125 125 125 126 126 127 127 128 129 130 130 131 132 132 133 133 134 134 134 135 135 135 136 136 136 136 137 137 137 138 138 138 138 137 137 137 137 137 137 137 137 137 137 138 138 138 138 138 138 138 138 138 137 137 136 136 135 135 134 134 133 133 132 132 132 132 131 131 131 130 130 130 130 130 129 129 129 128 128 128 127 127 127 126 126 126 126 125 125 125 125 125 125 125 125 125 125 125 126 126 127 127 127 127 127 127 127 128 128 128 128 128 129 129 129 129 129 129 129 129 129 129 130 130 130 130 130 130 130 130 130 130 130 131 131 131 131 131 132 132 132 133 133 134 134 134 135 136 136 137 137 137 137 137 137 137 137 137 136 136 136 136 135 135 135 134 134 134 134 134 134 134 134 134 134 135 135 135 135 136 136 137 137 138 138 138 138 139 139 139 140 140 140 141 141 141 141 142 142 142 142 142 142 141 141 140 140 139 138 137 136 135 134 132 130 128 127 125 123 121 119 117 115 112 109 107 104 102 98 96 94 93 92 92 91 91 91 91 92 92 93 93 94 96 97 97
92 93 94 95 96 97 98 99 101 103 104 105 106 108 109 110 111 112 113 114 114 115 115 116 116 116 117 117 117 117 117 117 117 118 118 118 118 118 119 119 119 119 119 119 119 120 120 120 120 120 120 120 119 119 119 119 119 118 118 118 118 118 118 118 117 118 118 118 118 118 118 118 118 118 118 119 119 119 119 120 119 120 120 120 119 119 119 119 119 119 119 119 119 120 120 120 121 121 121 121 122 122 122 122 123 123 123 124 125 125 125 125 125 125 125 125 125 125 125 125 125 125 125 125 125 125 124 124 124 124 124 124 124 124 123 123 123 123 123 123 123 123 124 124 124 124 124 124 124 124 124 125 125 125 125 125 125 125 125 125 125 125 125 125 125 125 126 126 126 126 127 127 127 127 127 128 128 129 129 129 130 131 131 131 131 132 132 132 133 133 133 134 134 134 135 135 134 135 135 135 135 135 134 134 134 133 133 133 133 132 132 132 132 132 132 132 133 132 132 132 132 132 132 132 132 132 132 131 130 130 129 128 128 127 127 126 126 126 126 126 126 126 126 126 126 126 126 126 125 126 125 125 125 125 125 125 125 125 125 125 125 126 126 126 127 127 129 129 130 131 131 132 132 133 133 134 134 134 135 135 135 136 136 136 137 138 138 138 138 139 138 138 138 138 138 138 137 137 137 137 138 138 138 138 138 138 138 139 139 138 138 137 137 136 136 135 135 134 134 133 133 132 132 132 131 131 131 131 131 131 130 130 130 129 129 129 128 128 128 127 127 127 127 127 127 126 126 126 125 125 125 125 126 126 126 126 126 127 127 127 127 127 128 128 128 128 128 128 129 129 129 129 130 130 130 130 130 130 130 130 130 130 130 130 130 130 130 130 130 130 130 130 131 131 131 131 131 132 132 132 133 133 134 134 134 135 136 136 136 137 137 137 137 137 137 137 137 136 136 136 136 135 135 135 135 134 134 134 134 134 134 134 134 134 135 135 135 135 136 136 137 137 138 138 138 138 139 139 139 140 140 140 141 141 141 142 142 142 142 142 142 142 142 142 141 140 140 139 138 137 135 134 132 131 130 128 127 125 123 120 118 116 113 110 105 102 100 98 96 95 93 93 92 92 92 92 92 92 92 94 94 95 96 97 98
92 93 94 95 96 97 98 99 100 102 103 104 107 108 109 110 111 112 113 114 114 115 115 116 116 116 117 117 117 117 117 118 118 118 118 118 118 118 118 119 119 119 119 120 120 120 120 120 120 120 120 120 120 119 119 119 119 118 118 118 118 118 118 118 118 118 118 118 118 119 119 119 119 119 119 119 120 120 120 120 120 120 120 120 120 120 120 120 119 119 120 120 120 120 120 121 121 122 122 122 122 123 123 123 123 124 124 124 125 125 125 125 125 125 125 125 125 125 125 125 126 125 125 125 125 125 124 124 124 124 124 124 124 124 124 124 124 124 124 124 124 124 125 125 125 125 125 125 125 125 125 126 126 126 126 126 126 126 126 126 126 126 126 126 126 126 126 126 126 126 127 127 127 127 127 128 128 129 129 130 131 132 132 132 132 132 133 133 133 134 134 134 135 135 135 135 135 136 135 135 135 135 135 134 134 134 133 133 133 133 133 133 133 133 133 133 133 133 133 133 133 132 133 133 132 132 132 131 130 130 129 128 128 127 127 126 126 126 126 126 126 126 126 126 127 127 127 127 127 126 126 126 126 126 126 126 126 126 126 126 126 126 127 127 128 128 129 130 130 131 132 132 132 133 134 134 135 135 135 135 136 136 137 137 137 138 138 138 138 139 138 138 138 138 138 138 138 137 138 138 138 138 138 138 138 139 138 139 139 139 138 138 137 137 136 136 135 134 134 133 132 132 132 131 131 131 131 131 131 131 130 130 130 130 129 129 129 129 128 128 128 127 127 127 127 126 126 126 125 125 125 125 126 126 126 127 127 127 127 128 128 128 128 129 129 129 129 129 129 130 130 130 130 130 130 130 130 130 130 130 130 130 130 130 130 130 130 130 130 131 131 131 131 131 131 132 132 132 132 133 133 133 134 134 134 135 136 136 136 137 137 137 137 137 137 137 137 137 136 136 136 136 135 135 135 134 134 134 134 134 134 134 134 135 135 135 135 136 136 137 137 137 137 138 138 138 139 139 139 140 140 140 141 141 142 142 142 142 142 143 142 142 142 142 141 140 140 138 137 136 135 134 133 132 131 129 128 126 124 122 119 117 112 109 106 103 101 99 97 95 94 93 92 92 92 92 92 93 93 94 95 96 97 98 99
92 93 94 95 96 97 98 99 100 102 103 104 105 107 108 110 111 112 113 113 114 115 115 116 116 117 117 117 117 118 118 118 118 118 118 118 118 118 118 119 119 119 119 120 120 120 120 120 120 120 120 120 120 120 120 120 120 119 119 119 119 118 118 118 118 118 118 118 118 118 119 119 119 119 120 120 120 120 120 120 120 120 121 121 121 121 120 120 120 120 120 120 120 121 121 121 122 122 123 123 123 123 124 124 124 124 125 125 125 126 126 126 126 126 125 125 126 126 126 126 126 125 125 125 125 125 124 124 124 124 124 124 124 125 124 124 125 125 125 125 125 125 126 126 126 126 126 126 126 127 127 127 127 127 127 128 128 127 127 127 127 127 127 127 127 127 127 127 127 128 128 128 128 128 128 129 129 130 130 130 131 131 132 132 132 132 133 133 133 134 134 134 136 136 136 136 136 136 136 136 136 135 135 135 134 134 133 133 133 133 133 133 133 133 133 133 133 133 133 133 133 133 133 133 133 132 132 131 131 130 129 129 128 128 127 126 126 126 126 126 126 126 126 126 127 127 127 127 127 126 127 127 127 127 127 127 127 127 127 127 127 127 127 128 128 129 130 130 131 132 132 133 133 134 134 135 135 135 136 136 137 137 137 138 138 138 138 138 139 139 139 139 138 138 138 138 138 137 138 138 138 138 138 138 138 139 138 139 139 139 139 138 138 137 136 136 136 135 134 133 132 132 132 132 131 131 131 131 131 131 130 130 130 130 130 130 129 129 129 129 128 128 128 128 128 127 127 127 126 126 126 126 126 127 127 127 127 127 127 128 128 128 128 129 129 129 129 130 130 130 131 131 131 131 131 131 131 131 131 131 131 131 131 131 131 131 131 131 131 131 131 131 131 131 132 132 132 132 133 133 133 133 134 134 135 135 136 136 137 137 137 137 137 137 137 137 137 137 136 136 136 136 135 135 135 134 135 134 134 134 134 135 135 135 135 135 136 136 136 137 137 137 137 138 138 139 139 139 140 140 141 141 142 142 142 142 143 143 143 143 143 143 142 142 142 140 139 139 138 137 136 135 133 132 131 129 128 126 124 119 117 114 112 109 106 104 102 99 97 96 94 94 93 92 92 92 93 93 94 94 95 96 97 98 100
91 92 93 94 96 97 98 100 101 102 103 105 106 107 108 109 110 111 113 113 114 115 115 116 116 117 117 117 117 117 118 118 118 118 118 118 119 119 118 119 119 119 119 120 120 120 120 120 120 120 120 120 120 120 120 120 120 120 120 119 119 119 119 119 119 119 119 119 119 119 119 119 119 120 120 120 120 120 120 120 120 120 121 121 121 121 121 121 121 121 121 121 121 121 122 122 122 123 123 123 124 124 124 124 125 125 125 126 126 126 126 126 126 126 126 126 126 126 126 126 126 126 126 125 125 125 125 125 125 125 125 125 125 125 124 124 125 125 125 125 125 125 126 126 126 126 127 127 128 128 128 128 128 128 128 128 129 129 128 128 128 128 128 128 128 128 128 128 128 128 129 129 129 129 129 130 130 130 131 131 131 132 132 133 133 133 134 134 134 135 135 135 136 136 136 136 136 136 136 136 136 135 135 135 134 134 134 134 133 133 133 133 133 133 133 133 133 133 133 133 133 133 133 133 133 133 132 132 131 130 130 129 129 128 127 127 127 127 127 127 127 127 127 127 127 127 127 127 127 127 127 127 127 127 127 127 127 127 127 127 127 127 127 129 129 129 130 131 132 132 133 133 134 134 135 135 136 136 136 137 137 138 138 138 139 139 139 139 139 139 139 139 139 139 138 138 138 138 138 138 138 138 138 138 139 139 139 139 139 139 139 138 138 137 136 136 136 135 134 133 132 132 132 132 131 131 131 131 131 131 131 131 131 131 131 130 130 130 130 130 129 129 129 129 129 128 128 128 128 127 127 127 127 128 128 128 128 128 128 129 129 129 129 129 129 130 130 130 130 130 131 131 131 131 131 131 131 131 131 131 131 131 131 132 131 132 131 131 131 132 132 132 132 132 132 132 133 133 133 134 134 134 134 135 135 136 136 137 137 137 137 137 137 137 137 137 137 137 137 136 136 136 135 135 135 135 135 134 134 134 134 135 135 135 135 136 136 136 136 137 137 137 137 138 138 139 139 140 140 141 141 141 142 142 142 143 143 143 143 143 143 143 143 142 141 141 140 139 138 138 136 135 134 133 132 131 127 125 123 121 118 115 113 110 107 104 102 99 97 96 94 93 92 92 92 92 93 93 94 94 95 97 98 99 100
91 92 93 94 95 96 98 99 101 102 104 105 106 107 109 110 111 112 112 113 114 115 115 116 116 117 117 117 117 117 118 118 118 118 118 118 119 119 118 119 119 120 120 120 120 120 120 120 121 121 121 121 121 121 121 121 121 121 121 120 120 120 120 120 120 120 120 120 120 120 120 120 120 120 120 121 121 121 121 121 121 121 121 121 121 121 121 121 121 121 121 121 121 121 122 122 122 123 123 123 124 124 125 125 125 126 126 126 126 126 126 127 126 126 126 126 126 126 126 126 126 126 126 126 125 125 125 125 125 125 125 125 125 125 125 125 125 126 126 126 126 126 126 127 127 127 127 127 128 128 128 128 128 128 128 128 129 129 130 130 129 129 129 130 129 129 129 129 129 129 129 130 130 130 130 131 131 131 131 132 132 133 133 133 133 134 134 135 135 135 136 136 136 137 137 137 136 137 136 136 136 136 135 135 134 134 134 134 133 133 133 133 133 133 133 133 133 133 133 133 133 133 133 133 133 133 133 132 131 131 130 129 129 128 128 127 127 127 127 127 127 127 127 127 128 128 128 128 128 128 128 128 128 127 128 128 128 128 128 128 128 128 128 129 129 129 130 131 132 132 133 133 134 134 135 136 136 136 137 137 138 138 139 139 139 139 139 139 140 140 140 139 139 139 138 138 138 138 138 138 138 138 138 139 139 139 139 139 139 139 139 139 138 138 137 137 136 135 134 134 133 132 132 132 131 131 131 131 131 131 131 131 131 131 131 131 131 131 130 130 130 130 130 130 130 129 129 129 128 128 128 128 128 128 129 129 129 129 129 130 130 130 130 130 130 131 131 131 131 131 132 132 132 132 132 132 132 132 132 132 131 131 131 132 131 132 131 131 131 132 132 132 132 133 133 133 133 133 134 134 134 134 135 135 135 136 137 137 137 137 137 137 138 138 137 137 137 137 137 137 136 136 136 135 135 135 135 135 135 135 135 135 135 135 136 136 136 136 136 137 137 137 137 138 138 139 140 140 140 141 141 141 142 142 142 143 143 143 143 143 143 143 143 142 142 141 140 140 139 138 137 136 135 134 132 130 128 127 124 121 119 116 114 111 108 105 103 100 96 95 94 93 93 93 93 93 93 93 94 94 95 97 99 100 102
91 92 93 94 96 97 98 99 100 101 103 105 106 108 109 110 111 112 113 113 114 115 115 116 116 117 117 117 118 118 118 118 118 118 118 119 119 119 119 119 119 120 120 120 120 120 120 120 121 121 121 121 121 121 121 121 121 121 121 121 121 121 121 121 120 120 121 120 120 121 121 121 121 121 121 121 121 121 121 121 121 121 122 122 122 121 121 121 121 121 121 122 122 122 122 123 123 123 124 124 124 124 125 125 125 126 126 126 126 126 126 127 127 127 127 127 126 126 126 126 126 126 126 126 126 126 125 125 125 125 126 126 126 126 126 126 126 127 127 127 127 127 127 128 128 128 128 128 129 129 129 129 129 130 130 130 130 130 130 130 129 129 129 130 129 129 129 129 129 129 130 130 130 130 131 131 131 132 132 132 133 133 133 134 134 134 135 135 136 136 136 136 137 137 137 137 137 137 137 136 136 136 135 135 134 134 134 134 133 133 133 133 133 133 133 133 133 133 133 133 133 133 133 133 133 133 133 132 131 131 130 130 129 129 128 127 127 127 127 127 127 127 128 128 128 129 129 129 129 129 129 129 129 129 129 129 129 129 129 129 129 129 129 130 130 130 131 132 132 133 133 134 134 135 135 136 136 136 137 137 138 138 139 139 139 139 139 140 140 140 140 140 139 139 139 138 138 138 138 138 138 138 138 139 139 139 139 139 140 140 139 139 139 138 137 137 137 136 135 134 133 132 132 132 132 132 131 131 131 131 131 131 131 131 131 131 131 131 130 130 130 130 130 130 130 129 130 130 129 129 129 129 129 129 129 129 130 130 130 130 131 131 131 131 131 132 132 132 132 132 133 133 133 133 133 133 133 132 132 132 132 132 132 132 132 132 132 132 132 133 133 132 132 133 133 133 133 133 134 134 134 134 135 135 136 137 137 137 137 137 138 138 138 138 138 138 138 137 137 137 137 136 136 136 136 135 135 135 135 135 135 135 135 136 136 136 136 136 137 137 137 137 138 138 139 139 140 140 140 141 141 141 142 142 142 143 143 143 143 143 143 143 143 142 142 141 141 140 139 138 137 137 135 134 132 131 129 127 125 122 120 117 115 112 109 104 101 99 97 95 94 93 93 93 93 93 93 94 94 96 97 98 100 101 102
90 92 93 94 96 97 98 99 101 102 103 105 106 107 109 110 111 112 113 114 114 115 116 116 116 117 117 118 118 118 118 118 118 119 119 119 119 119 119 119 119 120 120 120 120 121 121 121 121 121 121 121 121 121 121 121 121 121 121 121 121 121 121 121 121 120 121 121 121 121 121 121 121 121 122 122 121 121 122 121 122 122 122 122 122 122 122 122 122 122 122 122 122 123 123 123 124 124 124 125 125 125 125 126 126 126 126 127 127 127 127 127 127 127 127 127 126 126 126 126 126 126 126 126 126 126 126 126 126 126 126 126 126 127 127 127 127 127 128 128 128 128 128 129 129 129 129 130 130 130 130 131 131 131 131 131 131 131 131 131 131 131 130 130 130 130 130 130 130 130 130 130 130 130 131 131 131 132 132 132 133 133 133 134 135 135 135 136 136 136 137 137 137 137 137 137 137 137 137 137 136 136 135 135 134 134 134 134 133 133 133 133 133 133 133 133 133 133 133 133 133 133 133 133 134 133 133 132 132 131 130 130 129 129 128 127 127 127 127 127 127 127 128 128 129 129 129 130 130 130 130 130 130 130 130 130 130 130 130 130 130 130 130 131 131 131 132 132 133 134 134 135 135 135 136 136 137 137 138 138 139 139 139 139 139 140 140 140 140 140 140 140 139 139 139 138 138 138 138 138 138 138 138 139 139 139 139 140 140 140 140 139 139 138 138 137 137 136 136 135 134 133 132 132 132 132 132 132 132 132 132 132 131 132 131 131 132 131 131 131 131 131 131 131 130 130 130 130 129 129 129 129 129 129 129 129 130 130 131 131 131 132 132 132 132 132 133 133 133 133 134 134 134 134 133 133 133 133 133 133 133 133 133 133 133 133 133 133 133 133 133 133 133 133 134 134 134 134 134 134 135 135 136 136 136 137 137 137 137 137 138 138 138 138 138 138 137 138 138 137 137 137 137 136 136 136 136 136 135 135 136 136 136 136 136 136 137 137 137 137 137 138 138 139 139 139 140 140 140 141 141 141 142 142 143 143 143 143 144 144 144 143 143 142 142 141 141 140 139 137 137 136 135 134 132 132 130 128 126 123 121 118 116 110 107 105 102 100 98 96 95 94 94 94 94 94 94 94 95 96 98 99 101 102 104
89 90 91 93 95 97 98 99 101 102 103 105 106 107 108 109 110 112 113 114 115 115 116 116 117 117 117 117 118 118 118 118 119 119 119 119 119 119 119 119 119 119 120 120 120 121 121 121 121 121 121 121 121 121 122 121 121 121 121 121 121 121 121 121 121 121 121 121 121 121 121 121 121 121 122 122 121 121 122 122 122 122 122 122 122 122 122 122 122 122 122 123 123 123 123 123 124 124 125 125 125 126 126 126 127 127 127 127 127 127 127 127 127 127 127 127 127 127 127 126 126 126 126 126 126 126 126 126 126 126 126 126 126 127 127 127 127 128 128 129 129 129 129 130 130 131 131 131 131 131 132 132 132 132 132 132 132 132 132 132 132 132 132 131 131 131 131 131 130 130 130 130 131 131 131 132 132 132 133 133 133 134 134 134 135 135 135 136 136 136 137 137 137 137 137 138 138 138 138 137 137 136 135 135 134 134 134 134 133 133 133 133 133 133 133 133 133 133 133 133 133 133 133 133 133 133 133 132 132 131 130 130 129 129 128 128 127 127 127 127 127 127 128 128 129 129 129 130 130 130 130 130 130 131 131 131 131 131 131 131 131 132 132 132 132 132 133 133 134 134 135 135 135 136 136 137 137 137 138 138 139 140 140 140 140 140 140 140 140 140 140 140 139 139 138 138 138 138 138 138 138 138 138 139 139 139 139 140 140 140 140 139 140 139 139 138 138 137 136 135 134 134 133 133 133 133 132 132 132 132 132 132 132 132 132 132 132 132 132 132 131 131 132 132 131 131 131 130 130 130 130 129 130 130 130 130 130 130 131 131 132 132 132 132 132 132 133 133 133 133 134 135 134 134 134 134 134 134 134 134 134 134 134 134 134 133 133 134 134 134 134 134 134 134 134 134 134 135 135 135 135 136 136 136 136 137 137 137 137 138 138 138 138 138 138 138 138 138 138 137 137 137 137 136 136 136 136 135 135 136 136 136 136 136 136 137 137 137 137 138 138 138 138 139 139 140 140 140 141 141 141 142 142 142 143 143 143 143 144 144 144 144 143 143 142 142 141 140 139 138 137 137 136 135 133 132 130 128 126 123 118 116 113 110 107 105 102 101 99 97 96 95 94 94 94 94 94 95 95 97 98 99 101 103 105
89 90 91 93 94 96 97 100 101 102 104 105 107 108 109 110 111 112 113 113 115 115 116 116 117 117 117 117 118 118 118 118 119 119 119 119 119 119 119 119 119 119 120 120 120 120 121 121 121 122 122 122 122 122 122 122 122 122 121 121 121 121 121 121 121 121 121 122 122 122 122 122 122 122 122 122 122 122 122 122 122 122 122 122 122 122 122 122 122 122 123 123 123 124 124 124 124 125 126 126 126 126 127 127 127 127 128 128 128 128 128 128 128 127 127 127 127 127 127 126 127 127 126 126 126 126 126 126 126 126 127 127 127 127 127 128 128 128 128 129 129 129 129 130 130 131 131 131 131 133 133 133 133 133 134 133 133 133 133 133 133 133 133 132 132 131 131 131 131 131 131 131 131 131 132 132 132 133 133 133 134 134 134 135 135 135 136 136 136 137 137 137 138 138 138 138 138 138 138 137 137 137 135 135 134 134 134 134 134 133 133 133 133 133 133 133 133 133 133 133 133 133 133 133 133 133 133 132 132 131 130 130 129 129 128 128 127 127 127 127 127 127 128 128 129 129 130 130 131 131 131 131 131 131 131 131 131 131 131 131 131 132 132 132 132 134 134 134 135 135 136 136 136 137 137 138 138 138 139 139 140 140 141 140 140 141 141 141 140 140 140 140 140 139 139 138 138 138 138 138 138 138 138 139 139 139 140 140 140 140 140 140 140 139 139 138 138 137 136 135 134 134 133 133 133 133 133 133 133 133 133 133 133 133 133 133 133 133 132 132 132 132 132 132 132 132 131 131 131 131 130 130 130 131 131 131 131 131 132 132 132 133 133 133 133 133 134 134 134 134 134 135 134 134 134 134 134 134 134 134 134 134 134 134 134 134 134 134 134 134 134 134 134 134 135 135 135 135 135 136 136 136 136 136 137 137 137 137 138 138 138 138 138 138 138 138 138 138 138 138 138 137 137 137 137 136 136 136 136 136 136 136 136 136 136 137 137 137 138 138 138 138 139 139 139 140 140 140 141 141 141 142 142 143 143 143 143 144 144 144 144 144 143 143 143 141 141 140 139 139 138 137 136 135 134 133 131 129 124 122 119 117 114 111 108 106 103 101 99 97 96 94 94 94 94 94 94 95 95 97 98 100 102 104 106
89 90 91 93 94 96 97 99 100 101 105 106 107 109 110 111 112 112 113 114 115 115 116 117 117 117 118 118 118 118 118 118 119 119 119 119 119 119 119 119 119 119 120 120 121 121 121 121 122 122 122 122 122 122 122 122 122 122 122 122 122 122 122 122 122 122 122 122 122 122 122 122 122 122 122 122 122 122 122 122 122 122 122 123 123 123 123 123 123 123 123 123 123 124 124 124 124 125 125 126 126 126 127 128 128 128 128 128 128 128 128 128 128 128 127 127 127 127 127 127 127 127 127 127 127 127 127 127 127 127 127 127 128 128 128 128 129 129 129 129 130 130 130 131 131 132 132 132 132 133 133 133 133 133 134 133 133 133 133 133 133 134 134 133 132 132 132 132 132 132 132 132 132 132 132 133 133 133 133 134 134 134 135 135 135 136 136 137 137 137 138 138 138 138 138 138 138 138 138 137 137 137 136 135 135 134 134 134 134 133 133 133 133 133 133 133 133 133 133 133 133 133 133 133 133 133 133 132 132 131 130 130 129 129 128 128 127 127 127 127 127 127 128 128 129 130 130 131 131 132 132 132 132 132 132 132 132 133 133 133 133 133 133 133 133 134 134 134 135 135 136 136 136 137 137 138 138 139 139 140 141 141 141 141 141 141 141 141 141 141 141 140 140 139 139 138 138 138 138 138 138 138 138 139 139 139 140 140 141 141 141 140 140 140 139 139 138 138 137 135 135 134 134 133 133 133 133 133 133 133 133 133 133 133 133 133 133 133 133 133 133 133 133 133 133 132 132 132 132 132 131 131 131 131 132 132 132 132 133 133 133 133 134 134 134 134 134 134 135 135 135 135 135 135 135 135 134 134 135 135 135 134 134 134 134 134 134 134 134 134 134 134 134 134 135 135 135 136 136 136 136 136 137 137 137 137 138 138 138 138 139 139 139 139 139 138 138 138 138 138 138 138 138 137 137 137 137 137 137 136 137 136 137 137 137 137 137 138 138 138 138 138 139 139 139 140 140 140 141 141 142 142 142 143 143 143 143 144 144 144 144 144 143 143 142 142 141 140 140 139 138 138 137 136 135 134 130 128 126 123 121 118 115 112 109 107 104 102 99 96 95 95 94 94 94 94 94 95 96 97 98 100 104 106 108
89 90 91 93 95 96 97 99 101 102 104 105 107 109 110 111 112 113 114 114 115 115 116 117 117 117 118 118 118 119 119 119 119 119 119 119 120 120 120 120 120 120 120 120 121 121 121 121 121 122 122 122 122 122 122 122 123 122 123 123 122 122 122 122 122 122 122 122 123 123 123 122 123 123 123 123 123 123 123 123 123 123 123 123 123 123 123 123 123 124 124 124 124 124 125 125 125 126 126 126 127 127 127 128 128 128 128 128 128 128 128 128 128 128 128 128 128 127 127 127 127 127 127 127 127 127 127 127 127 128 128 128 128 128 128 129 129 129 130 130 130 131 131 132 132 133 133 133 134 134 134 134 134 134 134 134 134 134 134 134 134 134 134 133 133 132 132 132 132 132 132 132 132 133 133 133 133 133 134 134 134 135 135 135 136 136 136 137 137 138 138 138 139 139 139 139 138 138 138 138 137 137 136 136 135 134 134 134 134 133 133 133 133 133 133 133 133 133 133 133 133 133 133 133 133 133 133 132 132 131 130 130 129 128 128 127 127 127 127 127 127 127 128 129 129 130 130 131 132 132 133 133 133 133 133 133 133 134 134 134 134 134 134 134 134 134 135 135 136 136 136 137 137 137 138 138 138 139 139 140 141 141 141 141 141 141 141 141 141 141 141 140 140 139 139 138 138 138 139 138 138 138 139 139 139 139 140 140 141 141 141 141 141 140 140 140 139 138 138 136 136 135 134 134 134 134 134 133 133 133 133 133 133 133 133 133 133 133 133 133 133 133 133 133 133 132 132 132 132 132 132 131 131 132 132 132 132 133 133 133 133 134 134 134 134 135 135 135 135 136 136 136 136 135 135 135 135 135 135 135 135 135 135 135 134 135 135 135 135 135 135 135 135 135 135 135 136 136 136 136 136 136 137 137 137 137 138 138 138 139 139 139 139 139 139 139 139 138 139 138 138 138 138 138 137 137 137 137 137 137 137 137 137 137 137 138 138 138 138 138 138 138 139 139 139 140 140 140 141 141 142 142 142 143 143 143 143 144 144 144 144 143 143 143 143 142 141 141 140 140 139 138 138 136 134 132 131 129 127 124 122 119 117 113 111 108 103 101 99 97 96 95 95 94 94 95 95 95 96 99 100 103 105 107 109
87 89 90 91 95 96 97 99 101 102 104 106 108 109 110 111 113 113 114 115 116 116 117 117 117 118 118 118 118 119 119 119 119 119 119 119 120 120 120 120 120 120 120 120 121 121 121 122 122 122 122 122 122 122 123 123 123 122 123 123 122 122 122 122 122 122 122 122 123 123 123 123 123 123 123 123 123 123 123 123 123 123 123 124 124 124 124 124 124 124 124 125 125 125 126 126 126 126 127 127 127 127 128 128 128 128 129 129 129 129 128 129 128 128 128 128 128 127 127 127 127 127 127 127 127 127 127 127 128 128 128 128 128 128 129 129 130 130 130 131 131 132 132 133 133 134 134 134 135 135 135 135 135 135 135 135 135 135 135 135 135 135 134 134 133 133 133 132 132 132 132 132 132 133 133 133 133 133 134 134 134 135 135 135 136 136 136 137 137 138 138 138 139 139 139 139 138 138 138 138 137 137 136 136 135 135 135 134 134 134 133 133 133 133 133 133 133 133 133 133 133 133 133 133 133 133 132 132 131 131 130 130 129 128 128 127 127 127 127 127 127 127 128 129 129 130 131 131 132 133 133 134 134 134 134 134 134 135 135 135 135 135 135 135 135 135 136 136 137 137 137 138 138 138 138 139 139 139 140 140 141 141 141 141 141 141 141 141 141 141 141 140 140 139 139 138 138 138 139 138 138 139 139 139 139 140 140 141 141 141 141 141 141 141 140 140 139 139 137 137 137 136 135 135 135 134 134 134 134 134 134 134 134 134 134 134 134 134 134 133 133 133 133 133 133 133 133 132 132 132 132 131 131 132 132 132 132 133 133 133 133 134 134 134 134 135 135 135 135 136 136 136 136 136 136 135 135 135 135 135 135 135 135 135 135 135 135 135 135 135 135 135 135 135 135 135 136 136 136 136 137 137 137 137 137 138 138 138 138 139 139 139 139 139 139 139 139 138 139 139 138 138 138 138 138 138 138 138 138 137 137 137 137 138 138 138 138 138 138 138 138 139 139 139 139 140 140 141 141 142 142 142 142 143 143 143 143 144 144 144 144 144 143 143 143 142 141 141 140 140 139 138 137 136 134 132 132 130 128 125 123 120 118 115 109 106 104 102 100 98 97 96 95 95 95 95 95 97 98 99 101 103 106 108 110
87 89 90 92 93 95 96 100 101 103 104 106 108 109 110 111 112 113 113 115 116 116 117 117 118 118 118 118 119 119 119 119 119 119 119 119 120 120 120 120 120 120 120 120 121 121 122 122 122 122 122 123 123 123 123 123 123 123 123 123 123 123 123 123 123 123 123 123 123 123 123 123 123 123 123 123 123 123 123 123 124 124 124 124 124 125 125 125 125 125 125 125 125 126 126 126 127 127 127 128 128 128 128 128 129 129 129 129 129 129 129 129 129 129 128 128 128 128 128 127 127 127 127 127 127 127 127 127 128 128 128 128 128 128 129 129 130 130 131 131 132 132 132 133 134 134 135 135 135 136 136 136 136 136 136 136 136 136 135 135 135 135 135 134 134 133 133 133 133 133 133 133 133 133 133 133 133 133 134 134 135 135 135 135 136 136 136 137 137 138 138 138 138 139 139 139 139 139 138 138 138 138 137 137 136 136 135 135 134 134 134 133 133 133 133 133 133 133 133 133 133 133 132 132 132 132 132 132 131 131 130 129 129 128 128 127 127 127 127 127 127 127 128 129 129 130 131 131 132 133 133 134 134 134 134 135 135 136 136 136 136 136 136 136 136 136 137 137 137 138 138 138 139 139 139 139 140 140 140 140 141 141 142 142 142 142 142 142 141 141 141 141 140 140 139 139 139 139 139 139 139 139 139 139 139 140 140 141 141 141 141 141 141 141 141 140 140 139 138 138 137 137 136 136 135 135 135 135 135 135 135 134 135 134 134 134 134 134 134 134 134 134 134 133 133 133 133 133 132 132 132 132 132 132 132 132 132 133 133 133 133 134 134 134 134 135 135 135 136 136 136 136 136 136 136 136 135 135 135 135 135 135 135 135 135 135 135 135 136 136 136 135 136 136 136 136 136 136 137 137 137 137 137 137 138 138 138 138 139 139 139 139 139 139 139 139 139 139 139 138 138 138 138 138 138 138 138 138 138 138 138 138 138 138 138 138 138 138 138 138 138 139 139 139 140 140 141 141 141 142 142 142 142 143 143 143 144 144 144 144 144 144 143 143 143 142 142 141 140 139 139 138 137 136 135 133 132 130 128 125 123 120 115 112 109 106 104 103 101 99 97 97 96 96 95 95 96 97 98 100 101 104 106 109 111
87 89 90 92 93 95 97 98 100 102 105 107 108 110 111 112 113 113 114 115 115 116 117 117 118 118 118 118 119 119 119 119 119 119 120 120 120 120 120 120 120 120 120 121 121 122 122 122 123 123 123 123 123 123 123 123 123 123 123 123 123 124 124 124 124 124 124 124 124 124 124 124 124 124 124 124 124 124 124 124 124 124 124 124 124 125 125 125 125 125 125 125 126 127 127 127 127 128 128 129 129 129 129 129 129 129 129 129 129 129 129 129 129 129 129 128 128 128 128 128 128 128 127 127 127 127 128 128 128 128 128 129 129 129 129 130 130 131 131 131 132 132 132 133 134 134 135 135 135 136 136 136 136 137 137 137 137 136 136 136 136 135 135 134 134 134 133 133 133 133 133 133 133 133 133 134 134 134 134 134 134 135 135 135 136 136 137 137 137 138 138 138 139 139 139 139 139 139 138 138 138 138 137 137 136 136 135 135 135 134 134 134 133 133 133 133 133 133 133 132 132 133 132 132 132 132 132 131 131 130 130 129 129 128 128 127 127 127 127 127 127 128 128 129 130 130 131 131 132 133 134 134 134 135 135 135 135 136 136 136 136 136 136 136 136 136 138 138 138 139 139 139 139 139 140 140 140 140 140 141 142 142 142 142 142 142 142 142 142 142 141 141 141 140 140 139 139 139 139 139 139 139 139 139 139 140 140 141 141 141 141 141 141 141 141 140 140 139 138 138 137 137 136 136 136 136 136 136 136 135 135 135 135 135 135 134 134 134 134 134 134 134 134 134 133 133 133 133 132 132 132 132 132 132 132 132 133 133 133 133 133 134 134 134 134 135 135 135 136 136 136 136 136 136 136 136 135 135 135 135 135 135 135 135 135 135 135 135 136 136 135 135 135 135 136 136 136 136 137 137 137 137 137 137 138 138 138 138 139 139 139 139 139 139 139 139 139 139 139 139 138 138 138 138 138 138 138 138 138 138 137 138 138 138 138 138 138 138 138 138 138 139 139 139 139 140 140 141 141 141 142 142 142 142 143 143 143 143 144 144 144 143 143 143 143 142 142 141 140 140 139 138 138 137 136 134 132 130 129 124 122 119 116 114 111 108 105 103 101 99 97 97 96 95 95 95 96 97 98 100 101 104 106 109 115
87 89 90 92 94 95 97 99 101 102 104 106 109 110 112 113 113 114 115 115 116 117 117 118 118 118 119 119 119 119 119 119 119 120 120 120 120 120 120 120 120 120 120 121 121 122 122 123 123 123 123 123 124 124 124 124 124 124 124 124 124 124 124 124 124 124 124 124 124 124 124 124 124 124 124 124 124 124 124 124 124 124 124 124 125 125 125 125 125 126 126 126 126 127 127 127 127 128 128 129 129 129 129 129 130 130 130 130 130 130 130 130 129 129 129 128 128 128 128 128 128 128 128 127 128 128 128 128 128 128 128 129 129 129 130 130 131 131 131 132 132 132 133 133 134 134 135 135 136 136 136 136 136 137 137 137 137 137 136 136 136 136 135 135 134 134 133 133 133 133 133 133 133 133 134 134 134 134 134 134 134 135 135 136 136 136 137 137 138 138 138 139 139 139 139 139 139 139 139 139 138 138 138 137 137 136 136 135 135 134 134 134 133 133 133 133 133 133 133 132 132 132 132 132 132 131 131 131 130 130 130 129 128 128 128 127 127 127 127 127 128 128 128 129 130 130 131 132 132 133 134 134 135 135 136 136 136 136 137 137 137 137 137 137 137 137 138 138 138 139 139 139 139 139 140 140 140 140 141 141 142 142 142 142 142 142 142 142 142 142 142 141 141 140 140 139 139 139 139 139 139 139 139 139 139 140 140 140 141 141 141 141 141 141 141 140 140 139 139 138 138 137 137 136 136 136 136 136 136 135 135 135 135 135 135 134 134 134 134 134 134 134 133 133 133 133 133 132 132 132 132 132 132 132 132 132 132 133 133 133 133 133 134 134 134 134 135 135 135 136 136 136 136 136 136 136 136 135 135 135 135 135 135 135 135 135 135 135 136 136 135 135 135 135 135 136 136 136 136 137 137 137 137 137 138 138 138 139 139 139 139 139 139 139 139 139 139 139 139 139 139 138 138 138 138 138 138 138 138 138 138 138 138 138 138 138 138 138 138 138 139 139 139 139 139 140 140 141 141 141 142 142 142 143 143 143 143 143 143 143 144 143 143 143 143 142 141 141 141 140 140 139 138 137 136 135 134 130 127 125 123 120 118 115 112 109 106 104 102 98 97 97 96 96 95 96 96 97 98 100 101 104 109 112 115
86 87 89 92 94 96 98 99 101 103 105 107 108 109 111 113 114 115 115 116 117 117 117 118 118 119 119 119 119 119 120 120 120 120 120 120 120 120 120 120 121 121 121 121 121 122 122 123 123 123 123 123 124 124 124 124 124 124 124 124 124 124 124 124 124 124 124 124 124 124 124 124 124 124 124 125 125 125 125 125 125 125 125 125 125 125 125 126 126 126 126 127 127 127 128 128 128 128 128 129 129 129 129 129 130 130 130 130 130 130 130 130 129 129 129 129 128 128 128 128 128 128 128 128 128 128 128 128 128 129 129 129 129 129 129 130 131 131 132 132 132 133 133 133 134 135 135 136 136 136 136 137 137 137 137 137 137 137 136 136 136 136 135 135 134 134 133 133 133 133 133 133 133 133 133 133 134 134 134 134 134 134 135 135 136 136 136 137 137 138 138 138 139 139 139 139 139 139 139 139 139 139 138 138 137 137 136 136 135 135 134 134 133 133 133 133 133 132 132 132 132 132 132 132 132 131 131 131 130 130 130 129 128 128 127 127 128 128 128 128 128 128 129 129 130 131 131 132 133 133 134 135 135 136 136 137 137 137 137 137 137 138 138 138 138 138 138 139 139 139 139 139 140 140 140 140 141 141 141 141 142 142 142 142 142 142 142 142 142 142 142 142 141 141 140 140 140 140 139 139 139 139 139 139 139 140 140 141 141 141 141 141 141 141 141 141 140 140 139 139 138 138 138 137 137 137 136 136 136 135 135 135 135 135 135 134 134 134 134 134 134 134 133 133 133 133 133 132 132 132 132 132 131 132 132 132 132 132 132 132 133 133 133 134 134 134 134 135 135 135 135 136 136 136 136 136 135 135 135 135 135 135 135 135 135 135 135 135 135 135 135 135 135 135 135 136 136 136 136 137 137 137 137 137 138 138 138 139 139 139 139 139 139 139 139 139 139 139 139 139 139 139 139 139 138 138 138 138 138 138 138 138 138 138 138 138 138 138 139 139 139 139 139 139 140 140 140 141 141 141 142 142 142 143 143 143 143 143 143 143 144 143 143 143 143 142 142 141 141 141 140 140 139 138 137 134 133 131 128 126 124 122 119 116 114 110 108 103 101 99 98 97 97 96 96 96 96 97 99 102 104 107 109 112 116
86 87 89 90 92 94 98 99 101 103 106 107 109 110 111 113 114 114 116 116 117 118 118 119 119 119 119 119 119 119 120 120 120 120 120 120 120 120 120 120 121 121 121 121 122 122 122 123 123 123 124 124 124 124 124 124 124 124 124 124 124 124 124 124 124 124 124 124 124 125 125 124 124 125 125 125 125 125 125 125 125 125 125 125 125 125 125 126 126 126 127 127 127 127 128 128 128 128 129 129 129 130 130 130 130 130 130 130 130 130 130 130 130 129 129 129 128 128 128 128 128 128 128 128 128 128 128 128 129 129 129 129 130 130 130 130 131 132 132 132 132 133 133 134 134 135 135 135 136 136 136 137 137 137 136 137 137 136 136 136 136 136 135 135 134 134 134 133 133 133 133 133 133 133 133 133 134 134 134 134 134 134 135 135 136 136 137 137 137 138 138 138 139 139 139 139 139 139 139 139 139 139 139 138 138 137 137 136 135 135 134 134 133 133 133 133 133 132 132 132 132 132 131 131 131 131 131 130 130 130 129 129 128 128 127 127 128 128 128 128 128 128 129 130 131 131 132 132 133 134 135 135 136 136 137 137 138 138 138 138 138 138 138 138 139 139 139 139 139 140 140 140 140 140 141 141 141 141 142 142 142 142 142 142 142 142 142 142 142 142 142 142 141 141 140 140 140 140 139 139 139 139 139 139 140 140 140 141 141 141 141 141 141 141 141 141 141 140 140 139 139 138 138 138 137 137 137 137 136 136 136 136 136 135 135 135 134 134 134 134 134 134 133 133 133 133 132 132 132 132 132 132 132 132 132 132 132 132 132 132 132 133 133 133 134 134 134 134 135 135 135 135 135 135 136 135 135 135 135 135 135 135 135 135 135 135 135 135 136 135 135 135 135 135 135 136 136 136 137 137 137 137 137 138 138 138 138 139 139 139 139 139 139 139 139 139 139 139 139 139 139 139 139 139 138 138 138 138 138 138 138 138 138 138 138 138 138 138 138 138 139 139 139 139 140 140 140 140 141 141 142 142 142 143 143 143 143 143 143 143 143 143 143 143 143 142 142 141 141 141 140 140 139 137 136 135 133 132 129 127 125 123 120 118 115 109 106 104 102 100 99 98 97 96 96 96 97 99 100 101 104 106 109 111 116
86 87 89 91 92 94 96 98 100 104 106 107 109 110 111 113 114 114 115 116 116 118 119 119 120 120 120 120 120 120 120 120 120 120 120 120 120 120 121 121 121 121 121 121 122 122 123 123 124 124 124 124 124 124 124 124 124 124 124 124 124 124 124 124 124 124 125 125 124 125 125 124 124 125 125 125 125 125 125 125 125 125 125 125 126 126 126 126 126 126 126 127 127 128 128 129 129 129 129 129 130 130 130 130 130 130 130 130 130 130 130 130 130 130 129 129 129 128 128 128 128 128 128 128 128 128 128 128 129 129 129 129 130 130 130 130 131 131 132 133 133 133 134 134 134 135 135 135 136 136 136 136 136 136 136 136 136 136 136 136 136 135 135 135 134 134 134 133 133 133 133 133 133 133 133 133 134 134 134 134 134 135 135 135 136 136 137 137 137 138 138 138 139 139 139 139 139 139 139 139 139 139 139 138 138 138 137 137 136 135 135 134 134 134 133 133 133 132 132 132 132 132 131 131 130 130 130 130 130 129 129 129 129 128 128 128 128 128 128 128 129 129 129 130 130 131 132 132 133 134 135 135 136 136 137 137 138 138 138 138 138 139 139 139 139 139 139 139 140 140 140 140 140 141 141 141 141 142 142 142 142 142 142 142 143 143 143 143 143 143 143 142 142 141 141 140 140 140 140 140 139 139 139 139 140 140 140 141 141 141 141 141 141 141 141 141 141 140 140 140 139 139 139 138 138 138 137 137 137 136 136 136 136 136 135 135 134 134 134 134 133 133 133 132 132 132 132 132 131 131 131 131 131 131 131 132 132 132 132 132 132 133 133 133 134 134 134 134 135 135 134 134 134 135 135 135 135 135 135 135 135 135 135 135 135 135 135 135 135 135 135 135 135 135 136 136 136 136 136 137 137 137 137 138 138 138 138 139 139 139 139 139 139 140 140 140 139 139 139 139 139 139 139 138 138 138 138 138 138 138 138 138 138 138 138 138 138 138 138 138 139 138 139 139 139 139 140 141 141 141 142 142 142 143 143 143 143 143 144 144 144 144 144 143 143 143 142 142 142 141 141 140 139 138 136 135 133 132 129 127 125 123 120 115 112 109 107 105 102 100 99 98 97 96 96 97 97 99 100 101 104 106 108 111 116
87 88 89 91 93 95 97 98 100 103 105 106 110 111 112 113 114 115 116 116 117 118 118 119 120 120 120 120 120 120 120 120 120 120 120 120 121 121 121 121 121 121 121 122 122 122 122 123 124 124 124 124 124 124 124 124 124 124 124 124 124 124 124 125 124 125 125 125 125 125 125 125 125 125 125 125 125 125 125 125 125 125 125 125 126 126 126 126 126 126 126 127 127 128 128 129 129 129 129 129 130 130 130 130 130 130 130 130 130 130 130 130 130 130 129 129 129 128 128 128 128 128 128 128 128 128 128 128 129 129 129 130 130 130 130 131 131 131 132 132 133 133 134 134 134 135 135 135 136 135 136 136 136 136 136 136 136 136 136 136 135 135 135 134 134 134 133 133 133 133 132 133 133 133 133 133 134 134 134 134 134 134 135 135 135 136 136 137 137 138 138 138 139 139 139 139 139 139 139 139 139 139 139 138 138 138 137 137 136 136 135 134 134 134 133 133 133 132 132 132 131 131 131 130 130 130 130 130 129 129 129 128 128 128 128 128 128 128 128 128 129 129 129 130 130 132 132 132 133 134 135 135 136 137 137 137 138 138 138 138 138 139 139 139 139 139 140 140 140 140 141 141 141 141 141 141 142 142 142 142 143 143 142 143 143 143 143 143 143 143 143 142 142 142 141 141 141 141 140 140 140 139 139 139 140 140 140 140 141 141 141 141 141 141 141 141 141 140 140 140 139 139 139 139 138 138 138 137 137 137 136 136 136 136 135 135 134 134 133 133 133 132 132 132 132 132 131 131 131 131 131 131 131 131 131 131 131 132 132 131 132 132 133 133 133 133 133 134 134 134 134 134 134 135 135 135 135 135 135 135 135 134 134 134 135 135 134 135 135 135 135 135 135 135 135 135 135 135 136 136 137 137 137 137 138 138 138 139 139 139 139 139 140 140 140 140 140 139 139 139 139 139 139 138 138 138 138 138 138 138 138 138 138 138 138 138 138 138 138 138 138 138 138 139 139 140 140 141 141 141 142 142 142 143 143 143 143 144 144 144 144 144 144 144 144 143 143 142 142 141 141 140 139 138 137 136 134 133 130 128 124 121 119 116 113 110 107 105 102 100 99 98 96 96 96 97 97 99 100 101 104 106 108 110 118
86 87 88 92 94 95 97 99 101 103 105 107 109 110 111 114 115 115 116 117 117 118 119 119 120 120 120 120 120 120 120 120 120 120 120 120 120 121 121 121 121 121 121 122 122 122 122 123 123 124 124 124 124 124 124 124 124 124 124 124 124 124 124 125 125 125 125 125 125 125 125 125 125 125 125 125 125 125 125 125 126 126 126 126 126 126 126 126 126 126 127 127 127 127 128 129 129 129 129 129 130 130 130 130 130 130 130 130 130 130 130 130 130 130 129 129 129 129 129 129 128 129 128 128 128 129 129 129 129 129 129 130 130 130 131 131 131 132 132 132 133 133 133 134 134 134 135 135 135 135 136 136 136 136 136 136 136 136 136 136 135 135 134 134 134 133 133 133 132 132 132 132 132 133 133 133 133 133 134 134 134 134 135 135 135 136 136 137 137 137 138 138 138 139 139 139 139 139 139 140 140 139 139 139 138 138 137 137 136 136 135 134 134 134 133 133 133 132 132 132 131 131 130 130 130 130 130 129 129 129 129 128 128 128 128 128 128 128 128 129 129 129 130 130 131 132 132 133 133 134 135 136 136 137 137 138 138 139 139 139 139 139 139 139 139 139 140 140 140 140 141 141 141 141 141 141 142 142 142 142 142 143 143 143 143 143 143 143 143 143 143 143 143 142 142 142 141 141 141 140 140 140 140 140 140 140 140 141 141 141 141 141 141 141 141 141 141 141 140 140 140 139 139 139 138 138 138 137 137 137 136 136 136 136 135 135 134 134 133 133 133 132 132 132 132 131 131 131 131 131 130 130 130 130 130 131 131 131 131 131 131 132 132 132 132 132 132 132 133 133 133 133 133 134 134 134 134 134 134 134 134 134 134 134 135 134 134 135 135 135 135 135 134 134 134 135 135 135 136 136 136 137 137 138 138 138 139 139 139 139 139 140 140 140 140 140 140 139 139 139 139 139 139 139 139 139 138 138 138 138 138 137 138 138 138 138 138 138 138 138 138 138 138 139 139 140 140 141 141 141 142 142 143 143 143 144 144 144 144 144 144 144 144 144 144 144 143 142 142 142 141 141 140 139 137 136 135 133 129 127 125 122 120 117 114 111 108 106 103 101 99 98 97 96 96 97 97 99 100 101 104 106 110 116 118
87 88 89 91 92 94 98 100 102 104 106 108 109 111 112 113 114 116 117 117 118 119 119 119 120 120 120 120 120 120 120 121 121 121 121 121 121 121 121 121 121 121 121 122 122 122 122 123 123 123 124 124 124 124 124 124 124 124 125 125 124 124 125 125 125 125 125 125 125 125 125 125 125 125 125 125 125 125 126 126 126 126 126 126 126 126 126 126 127 127 127 127 127 128 128 128 129 129 129 130 130 130 130 130 130 130 130 130 130 130 130 130 130 130 129 129 129 129 129 129 129 129 129 129 129 129 129 129 129 129 130 130 130 131 131 131 132 132 132 133 133 133 133 134 134 134 134 134 135 135 135 135 136 136 135 136 136 135 136 135 135 135 134 134 134 133 133 133 132 132 132 132 132 133 133 133 133 133 134 134 134 134 135 135 135 136 136 136 137 137 138 138 138 139 139 139 139 139 139 139 140 139 139 139 139 138 138 137 136 136 135 134 134 134 133 133 132 132 132 132 131 131 131 130 130 130 130 129 129 128 128 128 128 128 128 128 128 128 128 129 129 130 130 131 131 132 133 133 134 135 135 136 137 137 137 138 138 139 139 139 139 139 139 140 140 140 140 140 140 141 141 141 141 142 142 142 142 142 142 142 142 143 143 143 143 143 143 144 144 144 144 143 143 143 143 142 142 142 141 141 141 140 140 140 140 140 140 141 141 141 141 141 141 141 141 141 141 141 141 140 140 140 140 139 139 139 138 138 138 137 137 137 136 136 135 135 134 134 133 133 133 132 132 132 132 131 130 130 130 130 130 130 130 130 130 130 130 130 130 130 130 130 131 131 131 130 131 131 131 131 131 132 132 133 133 133 134 133 133 134 134 134 134 134 134 134 134 134 134 134 134 134 134 134 134 135 135 135 136 136 136 137 137 137 138 138 139 139 139 139 140 140 140 140 140 140 139 139 139 139 139 139 139 139 139 139 138 138 138 138 137 138 138 138 138 138 138 138 138 138 138 139 139 139 140 140 140 141 141 141 142 142 143 143 143 144 144 144 144 144 144 144 144 144 144 144 143 143 142 142 141 141 140 139 138 137 134 132 130 128 126 123 121 118 115 112 109 107 102 101 99 98 97 97 96 97 97 98 100 103 105 107 110 115 117
87 88 89 91 92 94 96 98 100 105 107 108 110 112 113 114 115 116 117 117 119 119 120 120 120 120 120 121 121 121 121 121 121 121 121 121 121 121 121 121 121 121 122 122 122 122 123 123 123 123 124 124 124 124 124 124 124 124 125 125 124 124 125 125 125 125 125 125 125 125 125 125 125 125 125 125 126 126 126 126 126 126 126 126 126 126 126 127 127 127 127 128 128 128 128 129 129 129 129 130 130 130 130 130 130 130 130 130 130 130 130 130 130 130 129 129 129 129 129 129 129 129 129 129 129 129 129 129 129 129 130 130 130 131 131 132 132 132 133 133 133 133 133 133 134 134 134 134 135 135 135 135 135 135 135 135 135 135 135 135 134 134 134 134 134 134 133 133 132 132 132 132 132 133 133 133 133 133 134 134 134 134 135 135 135 135 135 136 136 137 138 138 138 138 139 139 139 140 139 139 140 140 139 139 139 139 138 138 137 136 136 135 134 134 133 133 133 132 132 131 131 131 130 130 129 129 129 129 129 128 128 128 128 128 128 128 128 128 128 129 129 130 130 131 131 132 133 133 134 135 136 136 137 137 138 138 138 139 139 139 139 139 139 140 140 140 140 140 141 141 141 141 141 142 142 142 142 142 142 143 143 143 143 143 143 143 144 144 144 144 144 143 143 143 143 142 142 142 142 141 141 141 141 140 141 140 140 141 141 141 141 141 141 141 141 141 141 141 141 141 140 140 140 139 139 139 138 138 138 138 137 137 137 136 135 135 134 133 133 133 132 132 132 131 131 131 130 130 130 130 130 130 130 130 130 130 129 129 129 129 129 129 129 129 129 129 129 129 129 129 129 130 131 131 131 132 132 132 133 133 133 133 133 133 133 133 134 133 133 133 133 134 134 134 134 134 135 135 135 135 136 136 137 137 138 139 139 139 139 139 140 140 140 140 139 139 139 139 139 139 139 139 139 139 139 138 138 138 138 137 137 137 137 137 138 138 138 138 138 138 138 138 139 139 139 140 140 141 141 141 142 143 143 143 144 144 144 144 144 144 144 144 144 144 144 144 143 143 142 142 141 141 140 140 137 136 135 133 131 129 126 124 121 119 116 113 107 105 103 101 99 98 97 97 96 97 97 99 101 102 104 106 109 114 116
87 88 89 91 93 95 97 99 101 103 105 107 110 112 113 114 115 116 117 117 119 119 119 120 121 121 121 121 121 121 121 121 121 121 121 121 121 121 121 122 122 122 122 122 122 123 123 123 123 124 124 124 124 124 124 124 124 125 125 125 125 125 125 125 125 125 125 125 125 125 125 125 125 125 125 125 125 126 126 126 126 126 126 126 126 126 127 127 127 127 127 128 128 128 128 129 129 129 129 129 130 130 130 130 130 130 130 130 130 130 130 130 130 130 130 129 129 129 129 129 129 129 129 129 129 129 129 129 129 129 130 130 130 131 131 132 132 132 133 133 133 133 133 133 134 134 134 134 134 134 135 135 135 135 135 135 135 135 135 134 134 134 133 133 133 133 132 132 132 132 132 132 132 132 132 132 132 133 133 134 134 134 135 135 135 135 135 136 136 137 138 138 138 138 139 139 139 139 139 140 140 140 140 140 139 139 138 138 137 136 136 135 135 134 134 133 133 132 132 131 131 130 130 129 129 129 129 128 128 128 128 128 128 127 127 128 128 128 129 129 129 130 130 131 131 132 133 133 134 135 136 136 137 138 138 138 138 139 139 139 139 140 140 140 140 140 140 141 141 141 141 141 141 142 142 142 142 142 142 143 143 143 143 144 143 144 144 144 144 144 144 144 144 144 143 143 143 142 142 141 141 141 140 140 141 140 140 141 141 141 141 141 141 141 141 141 141 141 141 141 141 140 140 140 140 139 139 139 138 138 137 137 137 136 135 135 134 133 133 132 132 131 131 131 130 130 130 130 129 129 129 129 129 129 129 129 129 129 129 129 129 129 129 129 129 129 129 126 126 127 127 128 128 129 130 130 131 131 132 132 132 132 132 133 133 133 133 133 133 133 133 133 133 133 133 133 134 134 134 135 135 135 136 137 138 138 138 139 139 139 139 139 139 139 139 139 139 139 139 139 139 139 139 139 138 138 138 137 137 137 137 137 137 137 137 137 137 138 138 138 138 138 138 139 139 139 140 140 141 142 142 143 143 143 144 144 144 144 144 144 144 144 144 144 144 144 143 143 142 142 142 141 140 139 137 136 135 133 131 129 126 124 122 117 114 111 108 106 103 101 100 99 97 97 96 97 98 99 100 101 103 105 107 112 114
86 88 89 92 93 95 97 99 101 103 105 107 109 111 114 115 116 116 117 118 119 119 119 120 120 121 121 121 121 121 121 121 121 121 121 121 122 122 122 122 122 122 122 122 123 123 123 123 123 124 124 124 125 125 124 124 125 125 125 125 125 125 125 125 125 125 125 125 125 125 125 125 125 125 125 125 126 126 126 126 126 126 126 126 126 126 127 127 127 127 127 128 128 128 128 128 129 129 129 129 129 129 129 129 129 130 130 130 130 130 130 130 130 130 130 130 130 129 129 129 129 129 129 129 129 129 129 130 130 130 130 130 131 131 131 132 132 132 133 133 133 133 133 133 134 134 134 134 134 134 134 134 134 134 134 134 134 134 134 134 134 133 133 133 133 133 132 132 132 131 131 131 131 132 132 132 132 132 133 133 133 134 134 134 135 135 135 135 136 136 137 138 138 138 139 139 139 139 139 140 140 140 140 140 139 139 139 138 138 137 136 136 135 134 133 133 132 132 131 131 131 130 130 129 129 129 129 128 128 128 128 127 127 127 127 128 128 128 129 129 130 130 131 131 132 132 133 134 134 135 136 136 137 138 138 138 138 139 139 139 139 140 140 140 140 140 140 141 141 141 141 141 142 142 142 142 142 142 142 143 143 143 143 144 144 144 144 144 145 145 145 144 144 144 144 143 143 143 143 142 142 141 141 141 141 140 141 141 141 141 141 141 141 141 141 141 141 141 141 141 141 141 140 140 140 139 139 139 138 138 137 137 137 136 135 135 134 133 132 132 131 131 131 130 130 130 129 129 129 129 128 128 128 128 128 128 128 128 128 127 127 127 126 126 126 126 126 126 126 127 127 128 128 129 130 130 131 130 130 131 131 132 132 132 132 132 132 132 132 132 132 132 132 133 133 133 133 133 134 134 134 135 135 137 137 138 138 138 138 138 139 139 139 139 139 139 139 139 139 139 138 138 138 138 138 138 138 137 137 137 137 137 137 137 137 137 137 137 137 138 138 138 139 139 139 139 140 140 141 142 142 143 143 143 144 144 144 144 144 144 144 144 144 144 144 144 143 143 143 142 141 141 140 139 138 137 135 133 131 129 127 122 120 117 114 111 108 106 103 101 100 99 97 97 96 97 98 98 99 101 103 105 107 111 115
87 88 89 91 93 94 98 100 102 104 106 108 110 112 113 114 116 117 118 119 119 119 120 120 120 121 121 121 121 121 121 121 121 121 121 121 121 122 122 122 122 122 122 123 123 123 123 123 123 124 124 124 125 125 124 125 125 125 125 125 125 125 125 125 125 125 125 125 125 125 125 125 125 125 125 125 125 125 126 126 126 126 126 126 126 127 127 127 127 127 127 128 128 128 128 128 129 129 129 129 129 129 129 129 129 129 129 129 129 130 130 130 130 130 129 129 129 129 129 129 129 129 129 129 129 129 129 130 130 130 130 130 131 131 132 132 132 133 133 133 133 133 133 133 133 133 134 134 134 134 134 134 134 134 134 134 134 133 133 133 133 133 132 132 132 132 132 131 131 131 131 131 131 131 131 131 131 132 132 132 133 133 134 134 134 135 135 135 136 136 136 137 138 138 138 139 139 139 139 139 140 140 140 140 139 139 139 138 138 137 136 136 135 135 133 133 133 132 132 131 131 130 130 129 129 129 129 128 128 128 128 128 128 128 128 128 128 128 129 129 130 130 131 131 132 132 133 134 135 135 136 137 137 138 138 138 139 139 139 139 139 140 140 140 140 140 140 141 141 141 141 141 142 142 142 142 142 143 143 143 143 143 143 144 144 144 145 145 145 145 145 145 145 145 144 144 144 144 143 143 142 142 141 141 141 141 141 141 141 141 141 141 141 141 141 141 141 141 141 141 141 141 140 140 140 139 139 139 138 138 138 137 137 136 135 134 134 133 132 132 131 131 131 130 130 129 129 128 128 128 128 128 127 127 127 127 127 126 126 125 125 124 124 124 124 123 123 123 124 124 125 125 126 127 128 128 129 130 130 131 131 132 132 132 132 132 132 132 131 131 132 132 132 132 132 132 132 133 133 133 134 134 136 136 137 137 138 138 138 138 139 139 139 139 139 139 139 139 139 138 138 138 138 138 138 138 138 137 137 137 137 137 137 137 137 137 137 137 137 138 138 138 139 139 139 139 140 140 141 142 142 143 143 143 143 144 144 144 144 144 144 144 144 144 144 144 143 143 142 142 141 141 140 139 138 137 135 134 132 128 126 123 121 118 115 112 109 107 104 102 99 98 97 97 96 97 98 98 99 101 103 105 111 111 113
