41.17 42.89 44.36 47.13 48.33 49.43 50.45 52.28 52.87 53.40 53.81 54.53 54.90 55.49 56.11 57.26 57.80 58.39 58.82 59.60 59.79 60.03 60.32 60.62 60.83 60.94 60.97 60.99 60.99 61.02 61.10 61.05 61.02 61.08 60.99 60.99 60.97 60.86 60.86 60.83 60.57 60.46 60.14 59.71 59.33 58.93 58.71 58.45 57.85 57.64 57.24 56.97 56.48 56.11 55.81 55.65 55.03 54.58 53.96 53.23 51.35 50.63 49.16 47.63 46.12 42.85 41.16 39.84 38.47 35.81 34.95 34.28 33.85 33.79 33.85 34.28 34.95 36.96 38.22 39.62 41.12 44.29 46.06 47.62 48.96 50.09 51.78 52.40 52.85 53.07 53.20 53.17 53.17 53.12 53.09 52.99 53.07 53.01 52.90 52.88 52.82 52.82 52.82 52.79 52.90 52.90 52.93 52.98 52.98 53.12 53.14 53.63 53.79 53.82 53.90 54.03 54.08 54.11 54.16 54.11 54.03 53.95 53.73 53.68 53.06 52.55 52.04 51.39 50.70 49.19 48.41 47.71 46.74 44.94 43.92 42.95 42.14 40.42 39.64 38.86 38.05 37.27 35.66 34.90 34.20 33.56 32.26 31.54 30.76 30.19 28.84 28.14 27.47 26.82 26.15 24.59 23.83 23.29 22.56 21.11 20.41 20.28 19.61 18.96 17.48 16.84 16.14 15.41 14.96 14.96 14.96 14.96 14.96 14.96 14.96 14.96 14.96 14.96 14.96 14.96 14.96 14.96 14.96 14.96 14.96 14.96 14.96 14.96 14.96 14.96 15.21 15.74 16.01 16.68 17.16 18.13 18.61 19.26 19.55 20.39 20.55 20.92 21.22 21.38 21.43 21.59 21.69 21.83 22.07 22.12 22.25 21.78 21.86 21.99 22.02 22.10 22.26 22.63 22.98 23.19 23.43 23.65 24.26 24.59 24.93 25.18 25.28 25.47 25.55 25.63 25.71 25.87 26.00 26.03 26.05 26.13 26.18 26.21 26.23 26.21 26.23 26.20 26.23 26.31 26.33 26.39 26.41 26.38 26.38 26.46 26.54 26.62 26.67 26.75 26.99 27.04 27.18 27.23 27.31 27.58 27.66 27.71 26.75 26.77 26.99 27.07 27.25 27.49 27.95 28.25 28.62 28.89 29.21 29.91 30.18 30.55 30.82 31.06 32.27 32.97 33.65 34.48 35.18 36.85 37.77 38.57 39.49 41.19 41.99 42.72 43.45 44.18 45.87 46.55 47.35 48.14 48.70 49.24 49.29 49.29 49.18 49.08 47.83 47.10 46.29 45.51 44.97 44.11 44.00 43.94 43.97 44.18 44.56 43.77 44.15 44.31 45.41 46.17 47.14 48.24 49.62 52.82 54.71 56.73 59.21 61.91 67.06 69.43 71.91 74.02 76.12 79.33 80.25 81.19 82.03 82.73 83.78 84.00 84.27 84.81 85.08 85.81 86.38 86.86 87.24 88.30 88.70 89.30 89.67 90.05 90.86 91.24 91.57 91.95 92.05 92.60 92.70 92.84 93.00 93.17 93.22 93.14 93.14 93.06 93.63 93.20 92.90 92.63 92.28 91.80 90.93 90.29 89.94 89.45 88.91 88.16 87.78 87.38 87.19 86.89 86.41 86.27 86.03 85.84 85.74 85.22 85.12 84.93 84.66 84.42 84.01 83.88 83.72 83.42 83.31 83.10 82.37 82.10 81.83 81.45 81.10 80.51 80.26 79.99 79.72 79.70 79.64 79.59 79.59 79.62 79.64 79.70 79.75 79.78 79.83 79.94 80.25 80.44 80.61 80.98 81.17 81.71 81.90 82.12 82.39 82.61 82.77 82.85 82.88 82.91 83.01 82.96 82.66 82.64 82.58 82.45 82.48 82.40 82.42 82.37 82.32 82.29 82.13 81.91 81.80 81.51 81.21 80.91 80.70 80.64 80.62 80.51 80.46 80.59 80.70 80.78 80.78 80.81 81.16 81.27 81.30 81.32 81.32 81.03 80.73 80.35 79.78 79.16 77.80 76.75 75.39 74.02 72.50 70.85 67.26 65.34 63.45 61.20 58.77 53.71 50.88 48.04 45.39 42.57 39.95 35.49 33.24 30.97 28.86 26.91 23.69 22.28 21.06 20.14
41.24 42.96 44.43 45.86 48.38 49.53 50.58 51.55 52.97 53.46 53.83 54.15 54.99 55.60 56.22 56.84 57.94 58.48 58.93 59.23 59.90 60.17 60.44 60.52 60.81 60.97 60.97 60.89 60.95 60.97 61.05 61.03 60.97 61.03 60.97 60.95 60.95 60.73 60.73 60.73 60.54 60.28 59.85 59.44 59.25 58.56 58.29 57.99 57.59 57.08 56.67 56.46 56.16 55.44 55.17 54.98 54.60 53.90 53.28 52.53 52.45 50.01 48.50 46.95 45.39 41.92 40.15 38.59 37.08 35.63 33.48 32.75 32.35 32.24 32.29 32.67 33.39 34.36 36.86 38.31 39.89 41.53 45.24 46.88 48.23 49.41 51.37 52.07 52.66 52.88 52.96 53.01 52.98 52.85 52.79 52.66 52.66 52.63 52.50 52.47 52.44 52.49 52.41 52.36 52.47 52.47 52.49 52.57 52.57 52.73 53.14 53.25 53.49 53.54 53.68 53.79 53.87 53.87 53.92 53.89 53.78 53.68 53.43 53.33 53.03 52.22 51.71 51.01 50.26 48.78 47.97 47.22 46.19 44.39 43.34 42.37 41.56 40.78 39.03 38.27 37.47 36.69 35.04 34.29 33.59 32.91 31.56 30.81 30.03 29.46 28.81 27.47 26.79 26.20 25.52 24.01 23.28 22.77 22.04 20.67 20.41 19.68 19.01 18.36 16.90 16.26 15.55 14.96 14.96 14.96 14.96 14.96 14.96 14.96 14.96 14.96 14.96 14.96 14.96 14.96 14.96 14.96 14.96 14.96 14.96 14.96 14.96 14.96 14.96 14.96 14.96 15.32 15.62 16.26 16.77 17.95 18.46 19.14 19.54 20.40 20.59 20.96 21.31 21.50 21.74 21.93 22.09 22.17 22.54 22.67 22.25 22.28 22.33 22.49 22.57 22.65 22.81 22.97 23.64 23.83 24.02 24.34 24.93 25.28 25.63 25.89 26.08 26.30 26.37 26.45 26.56 26.72 26.85 26.88 26.91 26.99 27.04 27.06 27.09 27.06 27.08 27.06 27.08 27.19 27.27 27.35 27.37 27.34 27.34 27.42 27.56 27.64 27.69 27.80 27.98 28.06 28.22 28.25 28.30 28.54 28.62 27.71 27.84 27.87 28.00 28.08 28.24 28.40 28.86 29.07 29.45 29.75 30.07 30.71 31.01 31.28 31.52 31.68 32.70 33.32 34.00 34.80 36.10 37.01 37.93 38.74 39.68 41.30 42.11 42.84 43.51 44.16 45.77 46.42 47.18 47.90 48.50 49.17 49.28 49.33 49.25 48.74 48.14 47.47 46.68 45.90 44.87 44.71 44.68 44.68 44.73 45.03 44.56 44.86 45.42 45.88 47.07 47.82 48.79 49.95 52.87 54.54 56.43 58.43 60.75 65.77 68.01 70.19 72.49 74.41 77.92 79.21 80.13 80.97 81.75 82.89 83.45 83.67 83.97 84.45 85.05 85.43 85.97 86.48 86.86 87.83 88.21 88.78 89.13 89.54 90.38 90.73 91.03 91.41 91.54 92.03 92.14 92.33 92.49 92.68 92.76 92.71 92.74 93.06 92.98 92.58 92.36 92.15 91.77 91.28 90.39 89.77 89.42 88.94 88.42 87.72 87.37 87.05 86.86 86.70 86.35 86.21 85.97 85.78 85.67 85.22 85.11 84.87 84.60 84.41 84.06 83.92 83.79 83.52 83.41 82.79 82.46 82.17 81.95 81.57 81.06 80.63 80.36 80.11 79.84 79.82 79.74 79.66 79.66 79.68 79.77 79.77 79.82 79.85 79.83 80.16 80.35 80.54 80.73 81.13 81.51 81.84 82.00 82.22 82.51 82.84 82.95 83.03 83.11 83.14 83.25 83.19 83.17 83.22 83.11 83.01 83.01 83.01 83.03 82.98 82.90 82.87 82.71 82.58 82.50 82.23 81.58 81.47 81.23 81.17 81.14 80.90 80.98 81.04 81.09 81.15 81.12 81.25 81.39 81.47 81.47 81.45 81.18 81.01 80.72 80.36 79.78 78.51 77.76 76.81 75.57 74.40 71.37 69.59 67.99 66.15 64.31 62.14 57.19 54.70 51.94 49.04 46.34 40.81 38.54 36.26 33.96 31.66 27.38 25.59 23.99 22.56 21.17 20.23
39.69 43.18 44.66 46.14 47.48 49.77 50.82 51.76 52.48 53.59 53.83 54.23 54.66 55.63 56.30 56.89 57.43 58.45 58.88 59.15 59.71 60.17 60.41 60.49 60.57 60.87 60.87 60.79 60.84 60.82 60.90 60.87 60.79 60.82 60.74 60.66 60.63 60.39 60.39 60.39 60.17 60.04 59.42 58.99 58.74 58.42 57.72 57.37 56.94 56.67 56.00 55.70 55.38 55.03 54.36 54.09 53.71 53.44 52.47 51.72 51.72 50.57 47.77 46.24 44.68 43.01 39.30 37.68 36.09 34.59 32.43 31.76 31.38 31.33 31.35 31.70 32.40 33.31 34.50 37.27 38.96 40.68 42.62 46.17 47.73 49.10 50.48 52.14 52.71 52.92 53.00 53.06 53.03 52.89 52.81 52.76 52.62 52.57 52.44 52.43 52.35 52.38 52.33 52.30 52.46 52.43 52.49 52.57 52.62 52.73 52.79 52.89 53.16 53.22 53.35 53.43 53.48 53.54 53.54 53.48 53.40 53.24 53.00 52.76 52.51 51.73 51.14 50.41 49.71 48.98 47.34 46.58 45.59 44.59 42.81 41.84 41.03 40.28 38.55 37.77 36.93 36.15 34.50 33.75 32.97 32.29 31.45 30.05 29.30 28.70 28.05 26.73 26.08 25.54 24.92 23.49 22.81 22.30 21.65 21.34 19.96 19.29 18.64 17.99 16.56 15.89 15.24 14.96 14.96 14.96 14.96 14.96 14.96 14.96 14.96 14.96 14.96 14.96 14.96 14.96 14.96 14.96 14.96 14.96 14.96 14.96 14.96 14.96 14.96 14.96 14.96 15.14 15.46 16.13 16.67 17.88 18.45 19.17 19.60 19.95 20.68 21.11 21.54 21.86 22.32 22.53 22.66 22.80 23.09 22.67 22.83 22.91 22.94 23.10 23.15 23.23 23.47 23.69 24.33 24.57 24.71 25.05 25.65 26.00 26.34 26.61 26.80 27.07 27.15 27.25 27.36 27.55 27.68 27.71 27.73 27.81 27.86 27.89 27.92 27.91 27.97 27.91 27.96 28.07 28.15 28.23 28.25 28.25 28.22 28.36 28.49 28.54 28.60 28.70 28.89 28.97 29.10 29.18 29.24 29.40 28.62 28.65 28.78 28.83 28.91 28.99 29.13 29.26 29.72 29.93 30.28 30.58 30.90 31.54 31.84 32.11 32.32 32.78 33.32 33.80 34.45 35.23 36.47 37.34 38.23 38.98 39.87 41.44 42.22 43.00 43.65 45.03 45.81 46.46 47.18 47.94 48.97 49.24 49.37 49.42 49.37 49.02 48.56 48.04 47.23 46.47 45.53 45.39 45.39 45.44 44.81 45.03 45.49 45.92 46.73 47.94 48.72 49.48 50.48 51.80 54.83 56.45 58.20 60.07 62.31 66.85 68.85 70.90 72.93 74.58 77.82 78.93 79.85 80.69 82.04 82.55 83.07 83.28 83.61 84.31 84.63 84.96 85.47 85.93 86.91 87.26 87.64 88.18 88.48 89.32 89.72 90.05 90.35 90.73 91.19 91.38 91.54 91.68 91.89 92.14 92.11 92.71 92.74 92.74 92.60 92.39 92.15 91.93 91.58 90.71 90.26 89.66 89.28 88.93 88.01 87.74 87.42 87.07 86.91 86.48 86.39 86.31 86.07 85.83 85.56 85.37 85.29 85.07 84.78 84.42 84.15 83.91 83.83 83.61 83.21 82.78 82.48 82.24 81.99 81.37 81.21 80.75 80.42 80.26 79.94 79.91 79.80 79.72 79.75 79.80 79.86 79.88 79.94 79.85 79.98 80.20 80.39 80.55 80.71 81.31 81.50 81.82 82.01 82.26 82.72 82.94 83.07 83.26 83.45 83.61 83.64 83.61 83.64 83.70 83.56 83.62 83.56 83.62 83.67 83.62 83.56 83.48 83.32 83.21 83.08 82.43 82.21 82.05 81.75 81.72 81.43 81.40 81.40 81.43 81.43 81.46 81.43 81.51 81.62 81.65 81.54 81.38 81.16 81.00 80.72 80.36 79.20 78.52 77.82 76.95 75.82 73.38 71.83 70.18 68.67 66.93 63.03 60.70 58.15 55.66 52.92 47.26 44.39 41.65 39.32 36.88 34.55 30.05 27.91 25.98 24.33 22.81 20.26 19.31
39.83 41.61 44.73 46.21 47.53 48.68 50.81 51.72 52.48 53.10 53.96 54.39 54.88 55.23 56.52 57.14 57.67 58.13 58.99 59.31 59.88 60.07 60.55 60.60 60.69 60.82 60.98 60.90 60.95 60.95 61.01 60.98 60.90 60.87 60.71 60.63 60.58 60.44 60.23 60.20 59.90 59.79 59.18 58.80 58.42 58.10 57.59 56.97 56.48 56.18 55.89 55.13 54.68 54.30 53.92 53.33 52.98 52.79 52.38 51.06 50.91 49.81 48.46 45.60 44.07 42.40 40.43 37.04 35.42 33.92 32.73 31.08 30.79 30.71 30.73 31.05 31.70 32.59 33.72 36.49 38.21 39.94 41.90 43.87 47.23 48.63 50.14 51.35 52.70 52.92 53.00 53.05 52.97 52.78 52.67 52.51 52.37 52.24 52.16 52.13 52.02 51.97 51.99 51.99 52.05 52.13 52.21 52.29 52.34 52.75 52.81 52.97 53.08 53.29 53.42 53.51 53.56 53.61 53.61 53.56 53.48 53.39 52.99 52.72 52.42 51.96 50.89 50.18 49.46 48.70 47.05 46.30 45.30 44.28 42.36 41.44 40.63 39.88 38.90 37.34 36.53 35.75 34.88 33.23 32.45 31.78 30.96 29.51 28.72 28.13 27.48 26.86 25.64 25.02 24.42 23.80 22.48 22.02 21.34 20.95 19.65 19.00 18.33 17.71 16.98 15.68 15.06 14.96 14.96 14.96 14.96 14.96 14.96 14.96 14.96 14.96 14.96 14.96 14.96 14.96 14.96 14.96 14.96 14.96 14.96 14.96 14.96 14.96 14.96 14.96 14.96 14.98 15.33 16.00 16.54 17.78 18.43 19.15 19.64 20.02 20.85 21.36 21.85 22.17 22.76 23.08 23.27 23.40 23.67 23.33 23.55 23.66 23.68 23.89 23.95 24.05 24.24 24.46 25.15 25.34 25.48 25.83 26.34 26.66 27.06 27.36 27.52 27.81 27.92 28.08 28.19 28.40 28.51 28.53 28.56 28.64 28.69 28.72 28.74 28.74 28.82 28.79 28.84 28.95 29.03 29.11 29.14 29.19 29.19 29.40 29.43 29.51 29.53 29.64 29.80 29.88 29.99 30.01 30.09 29.40 29.50 29.53 29.64 29.66 29.77 29.85 29.98 30.11 30.57 30.79 31.14 31.38 32.13 32.32 32.56 32.86 33.07 33.48 33.94 34.39 34.96 35.61 36.74 37.52 38.41 39.20 40.85 41.55 42.30 43.03 43.68 45.00 45.79 46.38 46.98 47.79 48.89 49.24 49.43 49.57 49.51 49.32 49.02 48.59 47.94 46.64 46.37 46.23 46.20 45.44 45.60 45.85 46.44 47.09 47.90 49.30 50.30 51.11 52.14 55.00 56.52 58.14 59.87 61.66 65.79 67.79 69.61 71.50 73.34 76.37 77.72 78.70 79.56 80.37 81.70 82.21 82.73 82.92 83.19 83.89 84.19 84.54 84.98 85.44 86.30 86.63 87.01 87.55 88.23 88.63 89.04 89.34 89.64 90.18 90.42 90.67 90.83 90.99 91.37 91.46 92.11 92.11 92.14 92.09 92.01 91.84 91.57 91.41 90.63 90.25 89.90 89.30 88.93 88.14 87.74 87.49 87.14 86.84 86.63 86.41 86.39 86.25 85.98 85.71 85.55 85.36 85.22 85.06 84.60 84.47 84.25 84.03 83.98 83.55 83.38 82.95 82.68 82.44 81.90 81.57 81.38 80.95 80.70 80.24 80.14 80.11 80.00 79.92 79.95 79.97 80.03 79.88 79.94 80.02 80.10 80.26 80.37 80.59 81.19 81.32 81.51 81.81 82.05 82.57 82.73 82.95 83.17 83.36 83.60 83.74 83.79 83.79 83.84 83.90 83.93 84.04 84.01 84.09 84.14 84.09 84.12 84.04 83.90 83.58 83.25 82.90 82.74 82.55 82.22 82.11 81.92 81.84 81.84 81.82 81.84 81.74 81.76 81.76 81.87 81.84 81.63 81.38 81.16 81.00 80.21 79.72 79.15 78.45 77.80 75.82 74.74 73.65 72.19 70.61 69.12 65.81 63.81 61.53 59.09 56.59 50.95 48.21 45.31 42.57 40.18 35.27 32.99 30.76 28.62 26.67 24.90 21.83 20.53 19.50
39.79 41.56 43.23 46.11 47.46 48.65 49.78 51.66 52.39 52.95 53.55 54.39 54.90 55.30 55.84 57.08 57.64 58.13 58.61 59.31 59.85 60.01 60.31 60.58 60.66 60.74 60.87 60.87 60.87 60.85 60.85 60.82 60.74 60.71 60.68 60.41 60.36 60.20 59.98 59.87 59.55 59.39 59.17 58.36 57.93 57.58 57.04 56.31 55.83 55.56 55.21 54.45 54.05 53.72 53.40 53.08 52.43 52.24 51.89 51.79 50.28 49.18 47.91 46.56 43.59 41.95 40.17 38.50 35.26 33.83 32.70 31.70 30.76 30.73 30.75 30.81 31.45 32.21 33.15 34.42 37.60 39.35 41.34 43.36 46.81 48.30 49.83 51.07 51.94 52.77 52.88 52.91 52.80 52.55 52.42 52.17 51.99 51.82 51.74 51.71 51.63 51.58 51.60 51.58 51.66 51.79 51.82 51.92 51.98 52.56 52.61 52.80 52.90 53.12 53.31 53.39 53.44 53.50 53.47 53.39 53.33 53.20 52.76 52.44 52.06 51.60 50.52 49.74 49.01 48.25 47.47 45.93 44.96 43.93 43.15 41.20 40.42 39.66 38.74 37.20 36.34 35.58 34.74 33.07 32.28 31.53 30.69 30.01 28.44 27.79 27.20 26.52 25.36 24.68 24.09 23.57 22.30 21.81 21.34 20.64 19.99 18.80 18.15 17.53 16.82 15.58 14.96 14.96 14.96 14.96 14.96 14.96 14.96 14.96 14.96 14.96 14.96 14.96 14.96 14.96 14.96 14.96 14.96 14.96 14.96 14.96 14.96 14.96 14.96 14.96 14.96 14.96 15.33 16.01 16.60 17.19 18.49 19.22 19.70 20.10 21.02 21.59 22.07 22.42 23.20 23.58 23.88 24.01 23.67 23.86 24.13 24.23 24.29 24.55 24.63 24.71 24.96 25.17 25.87 26.06 26.25 26.62 27.11 27.43 27.89 28.16 28.37 28.64 28.80 28.93 29.04 29.26 29.36 29.39 29.41 29.52 29.57 29.60 29.62 29.65 29.70 29.70 29.75 29.86 29.94 30.02 30.04 30.10 30.12 30.34 30.36 30.41 30.44 30.57 30.73 30.79 30.84 30.87 30.20 30.25 30.33 30.36 30.44 30.49 30.57 30.65 30.81 30.92 31.37 31.59 31.91 32.10 32.80 33.02 33.20 33.53 33.72 34.12 34.55 34.93 35.44 36.66 37.12 37.93 38.68 39.44 41.12 41.76 42.49 43.17 43.79 44.98 45.68 46.28 46.74 48.20 48.71 49.12 49.41 49.68 49.74 49.60 49.41 49.08 48.57 47.35 47.13 47.02 46.20 46.26 46.42 46.66 47.34 48.01 49.69 50.58 51.72 52.69 53.80 56.67 58.18 59.81 61.46 63.14 66.93 68.74 70.42 72.12 73.78 76.59 77.84 78.79 79.60 81.03 81.63 82.06 82.58 82.77 83.50 83.74 84.02 84.42 84.83 85.62 86.08 86.35 86.73 87.30 87.87 88.33 88.63 88.87 89.17 89.66 89.90 90.17 90.34 90.77 90.91 91.46 91.46 91.48 91.51 91.46 91.41 91.24 91.00 90.46 90.08 89.76 89.40 88.89 88.16 87.70 87.37 87.16 86.89 86.62 86.45 86.29 86.27 86.21 85.70 85.64 85.45 85.26 85.18 84.78 84.59 84.45 84.26 84.07 83.80 83.59 83.45 83.07 82.80 82.37 82.04 81.72 81.50 81.17 80.77 80.47 80.36 80.28 80.17 80.14 80.17 80.20 80.03 80.08 80.14 80.19 80.27 80.44 80.54 80.90 81.30 81.41 81.63 81.96 82.47 82.74 82.88 83.12 83.37 83.77 83.86 84.07 84.15 84.24 84.40 84.40 84.40 84.48 84.56 84.70 84.73 84.75 84.75 84.70 84.37 84.21 83.94 83.61 83.45 82.94 82.80 82.72 82.50 82.45 82.31 82.26 82.29 82.21 82.21 82.18 82.10 82.10 81.77 81.38 81.17 80.60 80.14 79.68 79.13 78.40 76.94 75.88 74.85 73.81 72.48 69.53 67.98 66.35 64.45 62.28 57.45 54.70 51.77 49.03 46.10 43.19 38.14 35.72 33.41 31.16 28.98 25.20 23.66 22.13 20.77 19.69
39.95 41.71 43.40 44.83 47.63 48.79 49.93 50.90 52.51 53.08 53.54 53.87 54.89 55.30 55.78 56.48 57.59 58.07 58.56 58.96 59.63 59.82 60.07 60.31 60.50 60.60 60.68 60.66 60.66 60.63 60.60 60.63 60.44 60.39 60.31 60.12 60.01 59.79 59.60 59.47 59.04 58.85 58.60 58.12 57.33 56.88 56.28 55.93 55.07 54.74 54.36 53.90 53.26 52.93 52.66 52.31 51.71 51.55 51.28 51.40 49.89 48.81 47.57 46.27 44.82 41.88 40.20 38.56 36.94 33.91 32.78 31.81 31.16 30.94 30.97 30.99 31.07 32.15 33.06 34.28 35.73 39.05 41.13 43.18 44.93 48.33 49.87 51.11 51.98 52.81 52.92 52.95 52.84 52.54 52.38 52.14 51.92 51.76 51.62 51.59 51.51 51.46 51.51 51.51 51.59 51.64 51.70 51.83 51.98 52.09 52.30 52.49 52.68 52.81 52.97 53.05 53.13 53.16 53.08 53.00 52.89 52.78 52.51 51.97 51.59 51.08 50.62 49.24 48.51 47.75 46.94 45.43 44.48 43.53 42.78 40.91 40.12 39.37 38.47 37.72 36.04 35.28 34.44 33.50 32.01 31.25 30.41 29.73 28.22 27.54 26.94 26.27 25.07 24.42 23.88 23.39 22.74 21.71 21.24 20.54 19.89 18.72 18.07 17.48 16.80 15.55 14.96 14.96 14.96 14.96 14.96 14.96 14.96 14.96 14.96 14.96 14.96 14.96 14.96 14.96 14.96 14.96 14.96 14.96 14.96 14.96 14.96 14.96 14.96 14.96 14.96 15.01 15.42 16.06 16.66 17.25 18.57 19.28 19.82 20.38 21.35 21.95 22.43 22.86 23.70 24.05 24.37 24.01 24.36 24.55 24.73 24.84 24.87 25.16 25.24 25.40 25.67 25.94 26.67 26.80 26.99 27.39 27.85 28.15 28.52 28.79 29.04 29.41 29.63 29.71 29.79 30.03 30.16 30.19 30.21 30.32 30.37 30.40 30.42 30.45 30.53 30.53 30.61 30.71 30.79 30.85 30.90 30.92 30.95 31.14 31.16 31.22 31.24 31.37 31.53 31.56 31.64 30.87 31.05 31.11 31.19 31.18 31.29 31.34 31.42 31.50 31.66 32.01 32.23 32.44 32.74 32.93 33.66 33.87 34.06 34.36 34.52 34.95 35.38 35.71 36.17 37.25 37.73 38.49 39.06 39.71 41.36 41.95 42.60 43.25 44.36 45.01 45.60 46.20 46.60 48.01 48.58 49.12 49.47 49.77 49.96 49.88 49.82 49.58 48.52 48.14 47.95 47.02 47.05 47.18 47.26 47.53 48.21 48.89 50.56 51.54 52.81 53.95 55.33 58.34 59.77 61.37 62.91 66.25 67.93 69.47 71.07 72.59 75.49 76.73 77.82 78.71 79.50 80.91 81.45 81.89 82.32 82.83 83.24 83.49 83.76 84.11 84.90 85.25 85.71 86.04 86.34 87.15 87.39 87.83 88.10 88.37 88.94 89.08 89.27 89.49 89.68 90.19 90.91 91.02 91.07 91.15 91.21 91.18 91.18 91.07 90.69 90.32 89.96 89.64 89.23 88.20 87.88 87.50 87.15 86.98 86.50 86.50 86.33 86.20 86.17 85.82 85.68 85.63 85.36 85.20 84.92 84.76 84.63 84.52 84.38 84.08 83.87 83.65 83.52 83.16 82.65 82.46 82.19 81.89 81.67 81.15 80.96 80.61 80.53 80.48 80.20 80.23 80.17 80.20 80.20 80.25 80.31 80.36 80.44 80.63 80.88 81.04 81.42 81.61 81.77 82.32 82.59 82.89 82.97 83.24 83.70 83.97 83.97 84.22 84.30 84.60 84.74 84.76 84.82 84.90 85.14 85.17 85.20 85.23 85.20 85.06 84.87 84.76 84.38 84.09 83.73 83.43 83.22 83.08 82.86 82.70 82.56 82.54 82.57 82.48 82.51 82.48 82.38 82.10 81.77 81.31 81.09 80.66 80.17 79.65 79.11 77.70 76.94 76.10 75.12 74.09 71.23 69.85 68.32 66.69 64.93 60.63 58.16 55.50 52.56 49.74 43.76 41.12 38.48 35.98 33.67 29.21 27.28 25.45 23.90 22.35 20.94 18.73
38.31 41.71 43.41 44.84 46.30 48.81 49.97 50.91 51.75 53.07 53.50 54.02 54.48 55.42 55.91 56.58 57.07 58.04 58.53 58.90 59.23 59.79 60.06 60.28 60.39 60.57 60.63 60.60 60.63 60.60 60.55 60.55 60.49 60.27 60.14 59.84 59.68 59.41 59.09 58.95 58.73 58.19 57.95 57.44 57.03 56.08 55.52 55.14 54.81 53.95 53.60 53.16 52.89 52.19 51.95 51.57 51.27 50.84 50.62 50.74 50.04 48.36 47.26 46.01 44.69 41.91 40.26 38.61 37.04 34.21 33.12 32.31 31.69 31.42 31.42 31.44 31.47 31.74 33.09 34.30 35.76 37.30 40.97 42.94 44.78 46.64 49.78 50.99 51.86 52.53 52.88 52.91 52.77 52.64 52.20 51.88 51.66 51.50 51.33 51.31 51.28 51.25 51.30 51.39 51.41 51.47 51.63 51.76 51.88 52.02 52.18 52.45 52.64 52.77 52.83 52.96 52.99 52.93 52.88 52.69 52.63 52.42 52.12 51.49 51.06 50.55 50.11 48.76 48.08 47.33 46.54 45.78 44.16 43.27 42.53 41.61 39.96 39.20 38.26 37.50 35.90 35.11 34.30 33.35 31.84 31.08 30.26 29.61 28.12 27.39 26.79 26.12 25.57 24.27 23.81 23.24 22.67 21.71 21.12 20.41 19.79 18.65 18.00 17.40 16.72 16.10 14.96 14.96 14.96 14.96 14.96 14.96 14.96 14.96 14.96 14.96 14.96 14.96 14.96 14.96 14.96 14.96 14.96 14.96 14.96 14.96 14.96 14.96 14.96 14.96 14.96 14.96 15.47 16.12 16.71 17.31 18.69 19.39 20.06 20.68 21.87 22.47 22.98 23.41 23.93 24.79 25.03 24.53 24.88 25.18 25.42 25.47 25.50 25.98 26.06 26.20 26.41 26.63 27.27 27.41 27.57 27.92 28.41 28.76 29.11 29.35 29.67 30.10 30.32 30.51 30.59 30.88 30.99 31.01 31.07 31.17 31.23 31.25 31.28 31.33 31.41 31.41 31.49 31.62 31.67 31.70 31.75 31.78 31.80 31.99 32.02 32.07 32.12 32.23 32.36 32.39 32.50 31.67 31.83 31.91 31.99 32.01 32.09 32.17 32.25 32.33 32.52 32.84 33.06 33.22 33.57 33.73 34.32 34.57 34.67 35.00 35.35 35.65 36.02 36.35 36.73 37.78 38.32 39.08 39.62 41.06 41.87 42.36 42.92 43.52 44.52 45.09 45.66 46.25 46.66 48.07 48.64 49.21 49.59 50.10 50.23 50.23 50.26 50.15 49.33 48.98 48.79 47.84 47.92 48.05 48.13 48.40 49.08 50.60 51.55 52.74 54.12 55.26 58.24 59.76 61.20 62.71 64.23 67.27 68.87 70.31 71.69 74.46 75.60 76.71 77.74 78.61 80.16 80.73 81.19 81.62 82.08 82.63 82.93 83.14 83.33 83.71 84.39 84.83 85.21 85.51 86.38 86.62 86.89 87.27 87.49 88.01 88.41 88.52 88.71 88.93 89.39 90.19 90.38 90.46 90.57 90.66 90.68 90.66 90.66 90.58 90.28 89.95 89.68 89.36 88.54 88.11 87.84 87.48 87.13 86.72 86.56 86.54 86.40 86.26 86.21 85.91 85.78 85.75 85.53 85.26 85.10 84.88 84.80 84.69 84.42 84.31 84.12 83.93 83.71 83.17 82.93 82.68 82.38 82.11 81.57 81.35 81.11 80.78 80.67 80.43 80.34 80.23 80.26 80.26 80.29 80.34 80.37 80.42 80.48 80.86 80.99 81.18 81.56 81.73 82.24 82.46 82.76 83.06 83.17 83.60 83.85 84.09 84.06 84.34 84.55 84.72 84.91 84.99 85.12 85.40 85.51 85.56 85.59 85.64 85.56 85.53 85.40 85.23 84.85 84.39 84.20 83.88 83.63 83.47 83.11 82.98 82.84 82.87 82.92 82.82 82.84 82.71 82.38 82.32 81.78 81.53 81.32 80.80 80.31 79.25 78.54 77.86 77.26 76.48 74.52 73.21 71.80 70.47 68.89 67.31 63.50 61.38 58.93 56.26 53.35 47.42 44.37 41.68 39.07 36.56 31.91 29.73 27.85 25.97 24.36 21.42 20.14 19.02
38.18 39.88 41.63 44.82 46.22 47.60 49.92 50.87 51.76 52.49 53.57 53.93 54.44 55.01 55.79 56.47 56.98 57.49 58.41 58.74 59.06 59.38 59.79 60.03 60.14 60.25 60.38 60.33 60.33 60.35 60.24 60.24 60.22 60.08 59.92 59.59 59.51 59.51 58.92 58.75 58.54 58.21 57.70 57.16 56.72 56.29 55.13 54.64 54.29 53.83 53.12 52.66 52.31 51.96 51.42 50.98 50.74 50.44 50.20 49.84 49.43 48.70 46.97 45.86 44.70 43.42 40.40 38.91 37.53 36.07 33.90 33.12 32.52 32.25 32.19 32.22 32.24 32.30 33.27 34.40 35.84 37.35 40.97 42.78 44.57 46.46 49.38 50.60 51.52 52.25 52.52 52.62 52.41 52.22 51.92 51.40 51.18 51.08 51.02 50.94 50.91 50.91 50.99 51.21 51.26 51.34 51.47 51.72 51.79 51.95 52.16 52.43 52.57 52.70 52.76 52.92 52.94 52.86 52.83 52.64 52.54 52.40 52.07 51.72 50.99 50.47 50.10 49.47 48.04 47.30 46.52 45.76 44.16 43.24 42.53 41.61 39.99 39.17 38.25 37.49 35.89 35.11 34.29 33.34 32.64 31.04 30.25 29.60 28.87 27.37 26.80 26.13 25.58 24.28 23.84 23.30 22.73 21.64 21.04 20.33 19.71 19.19 17.92 17.35 16.67 16.05 14.96 14.96 14.96 14.96 14.96 14.96 14.96 14.96 14.96 14.96 14.96 14.96 14.96 14.96 14.96 14.96 14.96 14.96 14.96 14.96 14.96 14.96 14.96 14.96 14.96 14.96 15.63 16.31 16.96 17.58 18.96 19.74 20.42 20.99 22.31 22.85 23.39 23.91 24.28 25.34 25.58 25.25 25.60 25.97 26.24 26.30 26.35 26.62 26.91 27.07 27.29 27.45 28.07 28.23 28.39 28.74 29.23 29.61 29.90 30.15 30.50 30.96 31.14 31.36 31.41 31.74 31.84 31.87 31.92 32.03 32.11 32.16 32.19 32.24 32.32 32.32 32.40 32.53 32.58 32.61 32.61 32.63 32.66 32.85 32.87 32.92 32.98 33.19 33.22 33.24 32.50 32.52 32.68 32.76 32.84 32.87 32.92 32.97 33.08 33.16 33.29 33.67 33.83 33.99 34.34 34.51 35.05 35.26 35.42 35.75 36.04 36.31 36.69 36.96 37.37 38.48 38.86 39.51 40.05 41.19 41.97 42.46 43.06 43.63 44.60 45.17 45.68 46.17 47.37 48.02 48.64 49.24 49.64 50.24 50.43 50.48 50.56 50.45 50.02 49.74 48.79 48.71 48.84 48.92 49.00 49.27 50.01 51.71 52.74 54.05 55.38 56.54 59.58 61.10 62.49 63.98 66.69 68.24 69.73 70.96 72.23 74.73 75.84 76.93 77.91 78.75 80.24 80.81 81.25 81.68 82.42 82.66 82.91 83.10 83.34 84.05 84.35 84.78 85.14 85.33 86.17 86.41 86.63 86.96 87.09 87.56 87.94 88.07 88.26 88.75 89.39 89.69 89.88 89.96 90.21 90.26 90.35 90.29 90.29 90.16 89.99 89.72 89.45 89.18 88.42 88.01 87.74 87.39 86.98 86.71 86.55 86.52 86.41 86.22 86.19 85.95 85.87 85.81 85.54 85.41 85.30 85.13 85.11 84.83 84.75 84.59 84.37 84.18 83.58 83.37 83.09 82.88 82.52 82.01 81.68 81.49 81.22 80.89 80.73 80.54 80.34 80.37 80.40 80.34 80.40 80.45 80.48 80.53 80.78 80.97 81.11 81.35 81.76 82.17 82.44 82.66 82.90 83.36 83.58 83.77 84.04 84.29 84.51 84.64 84.83 85.00 85.10 85.46 85.62 85.76 85.92 86.00 86.11 86.08 86.03 86.06 85.92 85.81 85.19 84.89 84.70 84.40 84.13 83.69 83.55 83.36 83.23 83.23 83.17 83.12 83.12 82.71 82.60 82.19 82.00 81.78 81.51 80.99 79.93 79.36 78.73 78.08 77.45 75.77 74.76 73.51 72.12 70.87 67.82 66.15 64.14 62.04 59.62 54.01 51.15 48.02 44.83 42.00 36.79 34.37 32.16 29.93 28.04 26.16 23.00 21.64 20.27 19.13
38.31 40.01 41.77 43.44 46.45 47.82 48.96 50.07 51.91 52.61 53.20 54.18 54.49 55.00 55.32 56.35 56.81 57.24 57.67 58.38 58.67 58.97 59.13 59.56 59.67 59.78 59.86 59.81 59.83 59.86 59.83 59.75 59.72 59.64 59.59 59.18 59.02 59.02 58.75 58.34 58.09 57.72 57.36 56.50 56.09 55.63 55.06 54.00 53.60 53.16 52.81 52.05 51.75 51.40 51.13 50.40 50.18 49.94 49.91 49.47 49.25 48.54 47.79 45.89 44.78 43.54 42.15 39.50 38.25 36.93 35.76 33.97 33.38 33.08 33.02 33.05 33.07 33.13 33.21 34.69 35.96 37.43 39.16 42.84 44.60 46.46 47.90 50.55 51.47 52.20 52.47 52.52 52.33 52.06 51.79 51.27 51.03 50.89 50.73 50.65 50.67 50.62 50.67 50.70 51.10 51.18 51.32 51.43 51.72 51.85 52.01 52.07 52.39 52.47 52.52 52.66 52.68 52.66 52.60 52.55 52.25 52.11 51.73 51.38 50.62 50.10 49.67 49.10 47.69 47.01 46.25 45.52 44.81 43.13 42.40 41.56 40.72 39.17 38.25 37.49 36.73 35.10 34.26 33.31 32.60 31.02 30.24 29.61 28.88 27.38 26.81 26.11 25.56 24.31 23.85 23.36 22.79 22.21 21.13 20.39 19.79 19.25 17.95 17.38 16.70 16.10 14.96 14.96 14.96 14.96 14.96 14.96 14.96 14.96 14.96 14.96 14.96 14.96 14.96 14.96 14.96 14.96 14.96 14.96 14.96 14.96 14.96 14.96 14.96 14.96 14.96 14.96 15.96 16.60 17.28 17.90 19.31 20.07 20.75 21.39 22.10 23.18 23.80 24.29 24.78 25.91 25.58 25.88 26.26 26.61 26.88 26.95 27.01 27.20 27.49 27.68 27.95 28.03 28.68 28.89 29.05 29.43 29.86 30.27 30.59 30.84 31.22 31.65 31.81 32.05 32.21 32.45 32.70 32.72 32.78 32.88 32.93 32.99 33.01 33.07 33.14 33.14 33.22 33.36 33.44 33.46 33.46 33.49 33.51 33.67 33.73 33.75 33.80 33.99 34.02 34.04 33.32 33.38 33.54 33.59 33.67 33.69 33.75 33.77 33.91 33.99 34.09 34.42 34.58 34.79 35.06 35.44 35.74 35.96 36.09 36.36 36.66 36.95 37.36 37.55 38.50 39.04 39.36 39.96 40.39 41.51 42.10 42.62 43.19 44.22 44.60 45.17 45.68 46.17 47.31 47.96 48.61 49.26 49.70 50.32 50.51 50.65 50.75 50.67 50.45 49.74 49.61 49.52 49.66 49.77 49.85 50.12 51.64 52.59 53.62 54.98 56.33 59.10 60.68 62.26 63.59 65.05 67.64 69.02 70.38 71.55 73.83 75.00 76.01 77.04 77.94 79.43 80.11 80.63 81.06 81.50 82.23 82.50 82.75 82.80 83.48 83.78 84.03 84.38 84.79 85.28 85.71 85.96 86.15 86.48 87.02 87.35 87.70 87.87 88.03 88.75 89.03 89.35 89.49 89.90 90.01 90.06 90.14 90.14 90.06 90.01 89.84 89.65 89.41 88.78 88.38 88.00 87.70 87.37 86.93 86.69 86.47 86.45 86.28 86.28 86.26 86.07 85.98 85.71 85.66 85.63 85.58 85.44 85.25 85.11 85.00 84.87 84.60 84.08 83.75 83.51 83.32 83.04 82.45 82.15 81.76 81.57 81.25 80.89 80.81 80.54 80.48 80.51 80.48 80.48 80.51 80.56 80.56 80.70 80.86 81.05 81.22 81.84 82.06 82.25 82.55 82.85 83.39 83.53 83.75 83.94 84.18 84.48 84.73 84.89 85.08 85.27 85.49 85.68 85.93 86.09 86.31 86.61 86.66 86.64 86.61 86.61 86.39 86.09 85.79 85.52 85.30 84.67 84.48 84.18 84.02 83.86 83.67 83.69 83.61 83.12 83.12 82.82 82.76 82.44 82.27 82.00 81.18 80.53 80.04 79.52 78.92 78.30 76.88 76.06 75.08 73.91 72.57 69.96 68.46 66.82 64.83 62.73 57.61 54.69 51.80 48.56 45.28 39.64 37.05 34.62 32.36 30.09 26.30 24.66 23.08 21.71 20.38 18.38
36.63 39.98 41.80 43.47 44.99 47.80 48.99 50.13 51.08 52.67 53.24 53.81 54.64 55.15 55.47 55.80 56.61 56.99 57.37 57.77 58.28 58.58 58.72 58.91 59.23 59.31 59.36 59.39 59.36 59.39 59.36 59.28 59.22 59.04 58.95 58.84 58.46 58.44 58.17 57.89 57.51 57.08 56.75 56.46 55.53 55.02 54.45 53.91 53.04 52.58 52.25 51.93 51.22 50.87 50.57 50.30 49.64 49.48 49.45 49.32 48.96 48.31 47.57 46.76 44.92 43.70 42.59 41.26 39.12 37.79 36.62 35.62 34.24 33.94 33.88 33.88 33.93 33.98 34.06 34.47 36.28 37.61 39.29 41.10 44.57 46.28 47.69 49.09 51.15 51.86 52.21 52.34 52.15 51.83 51.55 51.36 50.87 50.76 50.71 50.68 50.68 50.63 50.73 50.76 51.16 51.24 51.38 51.49 51.68 51.70 51.86 51.97 52.21 52.29 52.37 52.45 52.42 52.37 52.34 52.28 52.07 51.74 51.36 51.01 50.73 49.65 49.29 48.70 48.07 46.74 45.98 45.30 44.62 43.10 42.37 41.55 40.71 39.24 38.29 37.53 36.77 35.14 34.30 33.35 32.64 31.06 30.30 29.68 28.94 28.21 26.90 26.19 25.65 25.02 23.96 23.42 22.87 22.30 21.18 20.48 19.88 19.31 18.03 17.40 16.69 16.15 15.52 14.96 14.96 14.96 14.96 14.96 14.96 14.96 14.96 14.96 14.96 14.96 14.96 14.96 14.96 14.96 14.96 14.96 14.96 14.96 14.96 14.96 14.96 14.96 15.03 15.60 16.55 17.20 17.85 18.53 19.91 20.67 21.40 22.02 22.72 23.78 24.46 24.92 25.46 26.63 26.24 26.43 26.86 27.18 27.45 27.53 27.64 27.85 28.18 28.28 28.53 28.63 29.34 29.55 29.72 30.07 30.47 30.85 31.20 31.47 31.85 32.28 32.42 32.61 32.82 33.25 33.44 33.47 33.60 33.74 33.79 33.84 33.87 33.92 33.97 33.97 34.05 34.16 34.26 34.29 34.29 34.26 34.31 34.47 34.47 34.52 34.58 34.76 34.79 34.04 34.15 34.15 34.31 34.39 34.50 34.52 34.57 34.60 34.73 34.81 34.92 35.25 35.41 35.60 35.84 36.22 36.57 36.76 36.89 37.16 37.46 37.73 38.14 38.27 39.25 39.71 40.14 40.69 40.90 42.07 42.67 42.99 43.62 44.54 44.86 45.38 45.76 46.27 47.44 48.12 48.77 49.43 50.35 50.59 50.86 51.05 51.27 51.27 51.21 50.42 50.37 50.47 50.56 50.69 50.77 51.12 52.75 53.76 54.82 56.07 57.43 60.09 61.64 63.22 64.53 67.33 68.47 69.72 70.94 71.92 74.10 75.19 76.09 77.04 78.62 79.27 79.90 80.39 80.85 81.69 82.02 82.24 82.51 82.59 83.22 83.49 83.71 84.06 84.55 84.88 85.34 85.58 85.78 86.32 86.76 87.11 87.52 87.68 88.36 88.60 88.93 89.25 89.44 89.85 89.96 90.02 90.13 90.13 90.10 90.02 89.91 89.72 89.17 88.88 88.47 88.09 87.79 87.19 87.02 86.75 86.56 86.53 86.37 86.37 86.37 86.15 86.04 85.94 85.91 85.91 85.85 85.66 85.53 85.39 85.28 85.20 84.74 84.49 84.16 83.95 83.73 83.02 82.77 82.53 82.12 81.82 81.11 81.08 80.81 80.62 80.57 80.59 80.59 80.59 80.59 80.65 80.67 80.76 80.92 81.08 81.54 81.90 82.14 82.36 82.66 83.15 83.51 83.72 83.89 84.13 84.54 84.62 84.90 85.03 85.22 85.55 85.69 85.85 86.10 86.26 86.70 86.86 86.91 86.91 86.91 86.86 86.72 86.53 86.23 85.96 85.33 85.09 84.84 84.54 84.35 83.99 83.94 83.97 83.61 83.50 83.42 83.23 83.15 82.82 82.60 81.97 81.46 80.88 80.39 79.87 78.70 78.13 77.39 76.57 75.59 73.27 72.10 70.71 69.21 67.57 63.50 61.08 58.35 55.40 52.48 45.82 42.79 40.03 37.38 34.95 30.48 28.54 26.71 25.07 23.48 22.12 19.63 18.78
36.51 38.19 41.77 43.45 44.96 46.48 49.13 50.24 51.19 52.09 53.39 53.93 54.39 55.27 55.51 55.87 56.33 56.92 57.33 57.76 58.00 58.49 58.68 58.81 59.08 59.22 59.33 59.35 59.27 59.35 59.30 59.27 59.27 59.02 58.91 58.78 58.45 58.29 58.02 57.75 57.55 56.88 56.47 56.12 55.63 54.73 54.19 53.64 53.10 52.31 51.93 51.61 51.20 50.60 50.27 50.06 49.68 49.29 49.27 49.21 49.02 48.15 47.47 46.87 46.14 44.10 43.13 41.99 41.06 38.65 37.48 36.48 35.69 34.79 34.74 34.74 34.76 34.84 34.92 35.33 36.11 37.95 39.47 41.23 42.97 46.28 47.61 48.83 49.88 51.40 51.73 51.86 51.89 51.37 51.07 50.96 50.72 50.47 50.47 50.47 50.44 50.47 50.60 50.63 50.82 51.17 51.36 51.41 51.55 51.76 51.95 52.03 52.16 52.35 52.43 52.51 52.56 52.43 52.37 52.34 52.13 51.77 51.39 51.04 50.71 49.60 49.24 48.64 48.02 46.74 46.01 45.35 44.67 43.18 42.44 41.66 40.84 40.16 38.53 37.77 36.98 36.08 34.48 33.52 32.82 31.97 30.42 29.79 29.06 28.32 27.02 26.34 25.82 25.16 24.10 23.56 22.98 22.41 21.32 20.59 19.96 19.41 18.73 17.45 16.77 16.20 15.60 14.96 14.96 14.96 14.96 14.96 14.96 14.96 14.96 14.96 14.96 14.96 14.96 14.96 14.96 14.96 14.96 14.96 14.96 14.96 14.96 14.96 14.96 15.35 15.73 16.33 17.17 17.79 18.44 19.01 19.66 21.15 21.89 22.51 23.21 24.27 24.98 25.60 26.03 27.12 26.92 27.14 27.52 27.87 28.11 28.19 28.38 28.60 28.84 28.97 29.21 29.32 30.08 30.24 30.46 30.81 31.19 31.62 31.94 32.22 32.59 33.08 33.22 33.46 33.57 34.11 34.30 34.32 34.46 34.62 34.64 34.70 34.72 34.77 34.83 34.82 34.88 34.96 35.06 35.12 35.14 35.11 35.14 35.27 35.30 35.32 35.38 35.51 35.54 34.82 34.92 34.92 35.11 35.19 35.30 35.32 35.40 35.45 35.59 35.62 35.80 36.02 36.18 36.34 36.61 36.99 37.34 37.51 37.64 37.99 38.15 38.37 38.72 38.88 39.81 40.24 40.59 41.14 41.84 42.41 43.01 43.36 43.77 44.80 45.10 45.56 45.92 46.87 47.49 48.20 48.85 49.42 50.51 50.81 51.16 51.49 51.92 51.92 51.21 51.18 51.16 51.29 51.40 51.53 51.67 52.05 53.73 54.74 55.80 57.00 59.42 60.95 62.50 64.10 65.35 68.08 69.19 70.26 71.37 73.20 74.34 75.35 76.19 77.12 78.51 79.11 79.70 80.22 80.52 81.39 81.72 81.94 82.21 82.62 82.92 83.19 83.44 83.68 84.20 84.55 85.02 85.29 85.48 86.13 86.52 86.98 87.42 87.82 88.31 88.50 88.83 89.18 89.62 89.84 89.94 90.00 90.11 90.11 90.08 90.00 89.89 89.51 89.21 88.91 88.56 88.17 87.55 87.30 87.14 86.84 86.65 86.57 86.46 86.48 86.46 86.24 86.18 86.05 86.05 86.10 85.94 85.91 85.75 85.67 85.58 85.20 85.04 84.66 84.41 84.25 83.57 83.16 82.97 82.72 82.28 81.55 81.16 81.08 81.00 80.81 80.76 80.78 80.78 80.78 80.84 80.89 80.89 80.97 81.11 81.41 81.68 82.04 82.28 82.50 83.15 83.32 83.64 83.86 84.05 84.52 84.68 84.73 84.98 85.12 85.53 85.66 85.80 86.04 86.21 86.64 86.83 87.00 87.05 87.08 87.05 87.05 86.97 86.78 86.56 86.07 85.71 85.52 85.22 84.92 84.49 84.27 84.18 83.97 83.83 83.75 83.69 83.53 83.39 83.07 82.55 82.16 81.62 81.07 80.69 79.68 79.13 78.59 77.88 77.06 75.09 73.92 72.69 71.32 69.85 66.30 64.19 61.74 58.98 56.05 49.63 46.27 43.19 40.34 37.64 32.88 30.67 28.73 26.87 25.23 22.27 21.01 19.84 18.93
36.42 38.13 39.95 43.55 45.07 46.56 48.00 50.36 51.36 52.20 52.91 54.07 54.50 54.85 55.52 55.82 56.31 56.55 57.18 57.47 57.69 57.91 58.37 58.42 58.72 58.77 58.93 58.99 58.90 59.01 58.96 58.85 58.82 58.82 58.47 58.36 58.00 57.89 57.54 57.27 57.08 56.81 55.99 55.69 55.17 54.82 53.79 53.22 52.78 52.37 51.53 51.23 50.77 50.25 49.92 49.73 49.41 49.05 49.00 48.94 48.80 48.20 47.63 47.09 46.47 44.67 43.80 42.80 41.90 39.59 38.42 37.42 36.60 35.68 35.62 35.62 35.65 35.70 35.78 36.18 36.97 38.65 39.87 41.42 43.10 46.33 47.61 48.75 49.61 51.00 51.24 51.40 51.46 50.99 50.78 50.67 50.42 50.28 50.28 50.28 50.28 50.36 50.52 50.55 50.76 51.06 51.28 51.33 51.47 51.68 51.84 51.90 52.03 52.25 52.30 52.38 52.41 52.32 52.21 52.19 51.99 51.75 51.23 50.88 50.52 49.98 49.00 48.45 47.86 47.26 45.95 45.27 44.67 43.96 42.47 41.70 40.89 40.21 38.60 37.86 37.10 36.18 34.62 33.70 32.99 32.14 30.59 29.96 29.26 28.52 27.21 26.50 25.98 25.36 24.68 23.67 23.12 22.52 22.00 20.69 20.04 19.47 18.79 17.53 16.85 16.33 15.76 14.96 14.96 14.96 14.96 14.96 14.96 14.96 14.96 14.96 14.96 14.96 14.96 14.96 14.96 14.96 14.96 14.96 14.96 14.96 14.96 14.96 15.48 16.11 16.51 17.08 17.92 18.47 19.06 19.63 20.26 21.69 22.43 22.94 23.68 24.84 25.55 26.15 26.61 27.69 27.50 27.61 28.07 28.23 28.58 28.69 28.98 29.14 29.44 29.58 29.82 29.93 30.66 30.87 31.12 31.50 31.85 32.20 32.52 32.82 33.15 33.69 33.93 34.09 34.28 34.72 35.01 35.09 35.20 35.44 35.47 35.52 35.55 35.60 35.65 35.65 35.73 35.81 35.89 35.94 36.00 35.97 35.99 36.07 36.10 36.12 36.18 36.31 36.34 35.56 35.67 35.75 35.86 35.94 36.04 36.10 36.17 36.26 36.36 36.36 36.58 36.77 36.90 37.01 37.25 37.63 38.01 38.20 38.31 38.60 38.82 39.01 39.33 39.50 40.28 40.75 41.07 41.56 42.16 42.67 43.27 43.68 44.58 45.04 45.31 45.69 46.13 46.91 47.54 48.22 48.87 49.99 50.51 50.94 51.35 51.70 52.30 52.38 51.89 51.84 51.89 52.08 52.21 52.35 52.54 53.76 54.61 55.61 56.65 57.88 60.27 61.80 63.35 64.90 67.52 68.69 69.70 70.57 71.61 73.35 74.41 75.37 76.19 77.88 78.50 79.10 79.67 80.19 80.90 81.39 81.72 81.91 82.21 82.59 82.95 83.22 83.44 84.06 84.23 84.61 85.07 85.37 85.95 86.19 86.60 87.04 87.50 87.82 88.26 88.51 88.86 89.43 89.63 89.90 90.03 90.06 90.20 90.20 90.14 90.09 90.01 89.68 89.30 89.00 88.64 87.96 87.61 87.39 87.20 86.87 86.71 86.65 86.57 86.60 86.54 86.32 86.32 86.19 86.19 86.16 86.08 86.08 85.94 85.91 85.64 85.42 85.26 84.93 84.60 84.08 83.73 83.26 83.07 82.74 82.03 81.62 81.24 81.05 81.03 80.75 80.78 80.81 80.83 80.86 80.89 80.94 80.97 81.08 81.43 81.57 81.90 82.25 82.55 83.18 83.48 83.62 83.97 84.24 84.68 84.82 84.93 85.03 85.28 85.53 85.80 85.91 86.10 86.32 86.67 86.95 87.14 87.33 87.38 87.46 87.44 87.41 87.38 87.27 86.89 86.64 86.34 86.15 85.50 85.22 85.03 84.76 84.18 84.08 84.05 84.07 83.99 83.80 83.36 83.15 82.84 82.52 81.97 81.04 80.60 80.11 79.62 79.02 77.60 76.75 75.71 74.64 73.47 70.54 68.96 67.07 64.96 62.53 56.79 53.78 50.28 46.78 43.55 37.86 35.40 33.02 30.83 28.81 26.94 23.74 22.32 21.11 19.91 19.03
36.60 38.31 40.16 42.03 45.31 46.81 48.27 49.52 51.58 52.37 53.07 53.73 54.65 55.05 55.34 55.89 56.32 56.59 56.78 57.32 57.38 57.56 57.84 58.13 58.40 58.46 58.57 58.67 58.62 58.70 58.67 58.48 58.45 58.42 58.15 57.96 57.61 57.42 57.36 56.79 56.57 56.35 55.94 55.18 54.61 54.28 53.33 52.76 52.38 52.02 51.21 50.91 50.42 50.15 49.52 49.41 49.11 48.89 48.78 48.75 48.61 48.48 47.82 47.39 46.82 46.03 44.48 43.61 42.74 41.73 39.39 38.44 37.65 36.97 36.51 36.50 36.53 36.56 36.63 37.04 37.83 38.61 40.62 41.85 43.39 44.89 47.66 48.80 49.64 50.40 51.22 51.38 51.43 51.29 50.75 50.64 50.39 50.34 50.31 50.31 50.31 50.39 50.58 50.60 50.82 51.01 51.31 51.39 51.55 51.58 51.71 51.76 51.92 52.03 52.14 52.22 52.25 52.19 52.11 52.05 51.83 51.64 51.07 50.72 50.36 49.82 48.83 48.29 47.72 47.17 45.89 45.24 44.66 43.96 42.51 41.75 40.96 40.30 39.57 37.96 37.20 36.35 35.59 33.82 33.11 32.23 31.50 30.08 29.37 28.63 27.90 26.59 26.15 25.49 24.81 23.83 23.25 22.76 22.16 20.83 20.23 19.63 18.92 17.66 17.06 16.57 16.05 14.96 14.96 14.96 14.96 14.96 14.96 14.96 14.96 14.96 14.96 14.96 14.96 14.96 14.96 14.96 14.96 14.96 14.96 14.96 15.13 15.40 16.29 16.92 17.32 17.89 18.38 19.25 19.85 20.39 20.99 22.43 23.11 23.68 24.44 25.55 26.26 26.86 27.32 28.38 28.02 28.18 28.59 28.78 29.21 29.32 29.53 29.69 30.02 30.18 30.40 30.50 31.26 31.51 31.67 32.10 32.45 32.81 33.13 33.51 33.86 34.35 34.51 34.84 34.97 35.38 35.73 35.78 35.92 36.22 36.27 36.29 36.35 36.40 36.48 36.48 36.53 36.64 36.69 36.74 36.80 36.77 36.76 36.76 36.82 36.84 36.89 37.03 37.08 36.36 36.44 36.55 36.66 36.71 36.82 36.90 36.98 37.06 37.14 37.16 37.40 37.57 37.70 37.81 38.16 38.38 38.76 38.95 39.05 39.35 39.57 39.78 40.03 40.65 41.09 41.41 41.79 42.15 42.75 43.26 43.78 44.11 45.08 45.47 45.76 46.06 46.42 47.15 47.70 48.38 49.06 50.20 50.69 51.29 51.73 52.14 52.79 52.92 52.41 52.49 52.65 52.87 53.03 53.22 53.49 54.74 55.64 56.65 57.63 60.09 61.12 62.62 64.10 65.54 67.97 69.03 69.96 70.80 72.47 73.40 74.35 75.33 76.15 77.73 78.33 78.91 79.45 80.19 80.65 81.14 81.47 81.66 82.04 82.37 82.75 83.03 83.24 84.01 84.15 84.58 85.02 85.54 85.92 86.22 86.58 87.04 87.70 87.91 88.38 88.62 89.28 89.55 89.79 90.10 90.23 90.37 90.40 90.40 90.34 90.29 90.04 89.85 89.55 89.17 88.43 88.07 87.77 87.53 87.31 86.87 86.87 86.82 86.74 86.76 86.52 86.54 86.54 86.43 86.43 86.41 86.35 86.35 86.24 86.08 85.94 85.72 85.53 85.23 84.66 84.30 83.94 83.53 83.32 82.47 82.17 81.67 81.24 81.10 80.86 80.80 80.83 80.86 80.88 80.91 80.97 80.99 81.02 81.32 81.54 81.73 82.03 82.41 83.01 83.42 83.80 83.94 84.24 84.68 84.92 85.03 85.12 85.20 85.55 85.74 86.04 86.13 86.24 86.67 86.86 87.11 87.30 87.60 87.63 87.68 87.68 87.68 87.55 87.41 87.24 87.03 86.78 86.34 85.96 85.71 85.38 85.03 84.65 84.54 84.51 84.51 84.46 84.13 83.88 83.66 83.39 83.03 81.91 81.50 81.12 80.71 80.30 79.06 78.35 77.53 76.52 75.45 72.93 71.35 69.76 67.95 65.87 60.56 57.55 54.49 50.95 47.37 40.85 38.06 35.54 33.16 30.94 27.02 25.38 23.79 22.41 21.13 19.07 18.03
34.93 38.46 40.34 42.19 43.92 46.99 48.43 49.66 50.82 52.56 53.24 53.87 54.41 55.17 55.58 55.70 56.44 56.71 56.90 57.17 57.47 57.68 57.93 58.14 58.47 58.49 58.60 58.66 58.63 58.71 58.65 58.57 58.38 58.32 58.08 57.92 57.56 57.37 57.31 56.99 56.47 56.20 55.76 55.00 54.48 54.10 53.63 52.65 52.22 51.84 51.40 50.75 50.28 49.98 49.76 49.33 49.08 48.86 48.83 48.78 48.64 48.56 48.34 47.71 47.33 46.65 45.97 44.50 43.63 42.73 41.69 39.84 39.03 38.29 37.72 37.39 37.41 37.44 37.47 37.90 38.69 39.47 40.32 42.52 43.96 45.10 46.57 48.69 49.48 50.18 50.75 51.02 51.11 51.02 50.72 50.45 50.28 50.28 50.25 50.25 50.33 50.44 50.47 50.68 50.85 51.09 51.14 51.49 51.63 51.68 51.66 51.79 51.95 52.06 52.11 52.25 52.27 52.22 52.22 52.11 51.89 51.70 51.53 50.77 50.41 49.87 49.24 48.34 47.74 47.25 46.65 45.34 44.77 44.06 43.35 41.93 41.19 40.54 39.80 38.19 37.45 36.61 35.84 34.04 33.33 32.46 31.72 30.30 29.59 28.85 28.14 26.78 26.31 25.63 24.95 23.96 23.39 22.87 22.24 20.90 20.25 19.65 18.96 18.36 17.24 16.83 16.29 15.74 14.97 14.96 14.96 14.96 14.96 14.96 14.96 14.96 14.96 14.96 14.96 14.96 14.96 14.96 14.96 15.04 15.39 15.61 15.93 16.18 16.53 17.70 18.08 18.67 19.11 19.98 20.58 21.12 21.66 23.13 23.81 24.41 25.14 26.15 26.83 27.37 27.86 28.90 28.73 28.92 29.33 29.49 29.89 30.03 30.22 30.41 30.70 30.89 31.11 31.21 32.00 32.22 32.44 32.84 33.06 33.63 33.93 34.25 34.55 35.04 35.23 35.55 35.66 36.15 36.42 36.50 36.64 36.96 37.01 37.09 37.15 37.20 37.28 37.28 37.30 37.33 37.43 37.46 37.51 37.48 37.48 37.51 37.53 37.59 37.64 37.77 37.77 37.11 37.19 37.29 37.43 37.48 37.59 37.72 37.75 37.83 37.94 37.96 38.18 38.34 38.47 38.58 38.91 39.15 39.42 39.64 39.72 40.10 40.26 40.45 40.69 41.18 41.65 41.94 42.27 42.81 43.14 43.63 44.04 44.45 45.35 45.75 46.00 46.30 46.90 47.30 47.77 48.42 49.10 50.25 50.77 51.28 51.83 52.81 53.17 52.92 53.09 53.17 53.38 53.66 53.85 54.17 55.07 55.89 56.76 57.74 58.59 60.94 61.95 63.39 64.65 67.00 68.22 69.26 70.11 70.90 72.46 73.27 74.15 75.10 76.74 77.43 78.03 78.54 79.04 79.77 80.27 80.73 81.08 81.66 81.77 82.04 82.42 82.61 83.27 83.68 83.87 84.31 84.85 85.48 85.92 86.17 86.52 87.42 87.70 87.97 88.43 88.62 89.33 89.66 89.88 90.24 90.45 90.56 90.62 90.59 90.54 90.40 90.21 90.02 89.74 89.36 88.57 88.19 87.83 87.67 87.12 87.01 87.01 86.95 86.90 86.84 86.71 86.76 86.76 86.65 86.73 86.62 86.60 86.60 86.43 86.35 86.19 85.97 85.80 85.23 85.01 84.62 84.21 83.86 83.09 82.68 82.32 81.91 81.29 81.02 80.85 80.80 80.77 80.82 80.85 80.88 80.93 80.96 81.15 81.34 81.59 81.75 82.05 82.82 83.09 83.47 83.86 84.13 84.70 84.78 85.11 85.14 85.22 85.60 85.71 85.88 86.15 86.40 86.62 86.81 86.97 87.25 87.63 87.74 87.79 87.87 87.87 87.87 87.76 87.68 87.54 87.32 86.91 86.69 86.34 86.01 85.71 85.00 84.97 84.86 84.86 84.86 84.64 84.51 84.23 84.04 83.85 82.97 82.37 82.01 81.60 81.14 80.31 79.63 78.92 78.20 77.22 75.00 73.66 72.12 70.53 68.70 64.12 61.33 58.26 55.16 51.63 44.61 41.30 38.42 35.79 33.37 29.15 27.34 25.69 24.13 22.79 20.34 19.41 18.42
35.03 36.85 40.44 42.37 44.08 45.66 48.59 49.85 51.01 51.97 53.43 54.03 54.60 54.98 55.72 55.93 56.12 56.82 56.96 57.20 57.42 57.61 57.80 58.04 58.07 58.34 58.42 58.50 58.53 58.53 58.50 58.39 58.20 58.09 57.81 57.68 57.62 57.16 57.10 56.78 56.23 55.87 55.44 55.03 54.16 53.77 53.34 52.87 51.97 51.59 51.21 50.85 50.09 49.87 49.62 49.21 48.97 48.83 48.86 48.86 48.72 48.66 48.61 48.28 47.79 47.30 46.73 46.04 44.57 43.84 42.99 42.12 40.51 39.72 39.06 38.41 38.43 38.46 38.49 38.86 39.57 40.33 41.20 43.27 44.44 45.47 46.75 48.71 49.39 50.04 50.56 50.78 50.86 50.86 50.61 50.36 50.25 50.28 50.31 50.30 50.36 50.49 50.52 50.73 50.95 51.22 51.19 51.47 51.60 51.65 51.73 51.93 52.06 52.14 52.20 52.33 52.36 52.27 52.24 52.13 51.86 51.64 51.42 50.63 50.25 49.67 49.07 48.17 47.57 47.19 46.56 45.30 44.76 44.05 43.39 42.08 41.42 40.77 40.03 38.50 37.76 36.97 36.23 34.46 33.72 32.93 32.13 31.34 29.92 29.21 28.53 27.84 26.58 25.95 25.30 24.83 23.74 23.24 22.75 21.75 20.43 19.89 19.17 18.63 17.53 17.20 16.63 16.16 15.48 15.26 15.04 14.98 14.96 14.96 14.96 14.96 14.99 15.10 15.26 15.31 15.42 15.63 15.74 15.82 16.06 16.44 16.79 17.01 17.36 18.50 18.89 19.46 19.89 20.73 21.36 21.85 22.42 23.86 24.46 25.11 25.79 26.72 27.40 27.94 28.43 28.95 29.90 29.44 29.84 30.03 30.55 30.68 30.87 31.09 31.44 31.58 31.79 31.98 32.69 32.90 33.15 33.50 33.77 34.37 34.67 35.00 35.29 35.84 36.08 36.38 36.49 36.98 37.25 37.33 37.46 37.81 37.87 37.95 37.97 38.03 38.11 38.10 38.16 38.18 38.29 38.31 38.37 38.34 38.34 38.33 38.36 38.41 38.47 38.54 38.54 37.80 37.90 38.07 38.20 38.25 38.36 38.52 38.55 38.63 38.68 38.71 38.87 39.00 39.14 39.27 39.60 39.82 40.06 40.25 40.57 40.68 40.82 40.95 41.22 41.58 41.98 42.28 42.61 43.24 43.51 43.92 44.30 44.68 45.63 46.04 46.34 46.61 47.18 47.59 48.03 48.66 49.94 50.40 50.98 51.47 52.07 53.11 53.68 53.44 53.68 53.98 54.17 54.53 54.77 55.18 56.24 57.03 57.91 58.81 60.64 61.79 62.71 64.00 65.12 67.30 68.40 69.49 70.34 71.92 72.63 73.40 74.30 75.17 76.79 77.47 78.07 78.56 79.44 79.71 80.20 80.67 80.97 81.60 81.73 82.01 82.39 82.91 83.32 83.78 83.98 84.39 85.26 85.56 86.03 86.25 86.57 87.56 87.64 88.02 88.43 89.09 89.42 89.72 90.05 90.38 90.62 90.73 90.79 90.76 90.65 90.57 90.38 90.18 89.96 89.17 88.73 88.29 87.91 87.75 87.25 87.17 87.12 87.06 87.03 86.95 86.87 86.90 86.90 86.84 86.92 86.81 86.84 86.81 86.70 86.59 86.37 86.15 85.72 85.47 85.28 84.89 84.43 83.71 83.25 82.76 82.40 81.91 81.23 81.12 80.93 80.87 80.87 80.90 80.93 80.95 81.01 81.09 81.25 81.47 81.72 81.88 82.67 83.06 83.39 83.80 84.12 84.78 85.03 85.16 85.41 85.55 85.71 85.90 85.98 86.23 86.56 86.69 86.91 87.05 87.27 87.79 87.93 88.06 88.09 88.17 88.23 88.25 88.17 88.14 88.03 87.65 87.48 87.27 86.94 86.63 85.41 85.41 85.32 85.21 85.19 85.05 84.97 84.86 84.61 84.14 83.84 83.29 82.69 82.41 81.62 81.29 80.74 80.11 79.45 77.92 76.93 75.75 74.49 72.98 69.52 67.44 64.97 62.15 59.08 52.41 48.76 45.14 41.74 38.83 33.67 31.39 29.42 27.55 25.90 22.91 21.56 20.44 19.47 18.48
35.25 37.05 38.74 42.55 44.26 45.87 47.39 50.11 51.29 52.24 53.00 54.31 54.88 55.26 55.61 56.18 56.45 56.56 56.86 57.07 57.23 57.26 57.64 57.83 57.83 58.07 58.15 58.21 58.26 58.18 58.18 58.07 57.88 57.82 57.38 57.33 57.22 56.92 56.73 56.29 55.96 55.39 55.00 54.62 54.27 53.39 52.98 52.49 52.08 51.26 50.91 50.52 50.22 49.57 49.35 48.96 48.94 48.77 48.77 48.77 48.74 48.74 48.71 48.71 48.39 47.87 47.48 46.94 45.54 44.86 44.23 43.44 41.94 41.23 40.52 39.92 39.67 39.70 39.72 39.78 40.70 41.35 42.17 43.10 45.08 46.06 47.13 48.11 49.52 50.04 50.50 50.58 50.77 50.77 50.52 50.41 50.36 50.41 50.41 50.44 50.54 50.68 50.73 50.89 51.19 51.44 51.41 51.54 51.79 51.81 51.89 51.82 52.03 52.11 52.17 52.22 52.33 52.27 52.24 52.19 51.83 51.61 51.39 50.93 50.05 49.53 48.90 48.52 47.51 47.13 46.52 45.95 44.86 44.23 43.60 42.94 41.60 41.03 40.29 39.47 38.05 37.25 36.51 35.67 34.16 33.37 32.52 31.84 30.33 29.56 28.91 28.20 26.88 26.25 25.57 25.05 23.92 23.43 22.91 22.07 20.78 20.29 19.60 19.05 18.04 17.74 17.19 16.75 16.15 15.90 15.73 15.68 15.62 15.64 15.69 15.69 15.77 15.90 16.04 16.09 16.17 16.47 16.60 16.68 16.95 17.33 17.66 17.87 18.25 19.34 19.69 20.26 20.70 21.54 22.17 22.66 23.23 24.67 25.27 25.93 26.58 26.96 28.19 28.68 29.20 29.69 30.56 30.07 30.45 30.66 31.21 31.34 31.56 31.80 32.15 32.29 32.48 32.67 33.43 33.62 33.86 34.22 34.51 35.06 35.47 35.79 36.06 36.61 36.80 37.15 37.26 37.75 38.05 38.13 38.26 38.59 38.61 38.69 38.72 38.74 38.93 38.96 39.01 39.04 39.14 39.17 39.22 39.19 39.19 39.19 39.19 39.21 39.35 39.37 39.40 38.60 38.73 38.89 39.00 39.05 39.16 39.32 39.35 39.43 39.48 39.61 39.67 39.80 39.97 40.10 40.40 40.62 40.89 41.08 41.35 41.37 41.54 41.67 41.94 42.30 42.71 42.90 43.22 43.85 44.18 44.56 44.88 45.67 46.22 46.55 46.85 47.09 47.58 47.94 48.32 48.86 50.23 50.67 51.24 51.70 52.85 53.40 53.92 53.95 54.28 54.80 55.04 55.45 55.80 56.62 57.28 58.02 58.84 59.71 61.49 62.53 63.43 64.55 66.65 67.50 68.54 69.55 70.37 71.91 72.56 73.33 74.15 75.79 76.56 77.21 77.76 78.22 79.07 79.35 79.89 80.39 81.04 81.42 81.56 81.86 82.27 82.71 83.20 83.64 83.94 84.79 85.12 85.53 86.08 86.32 87.17 87.61 87.75 88.19 88.82 89.28 89.67 89.94 90.27 90.76 90.84 91.01 91.06 91.03 90.92 90.87 90.68 90.49 89.83 89.42 89.01 88.62 88.18 87.69 87.44 87.36 87.33 87.20 87.17 87.09 87.03 87.11 87.00 87.00 87.11 87.03 87.00 86.95 86.86 86.78 86.62 86.18 85.93 85.66 85.44 85.02 84.20 83.76 83.32 82.75 82.39 81.49 81.22 81.08 80.89 80.81 80.83 80.86 80.89 80.91 81.02 81.08 81.19 81.38 81.68 82.36 82.75 83.08 83.51 83.98 84.58 84.94 85.32 85.43 85.73 85.76 85.92 86.11 86.28 86.69 86.77 86.91 87.21 87.35 87.81 88.03 88.14 88.31 88.39 88.52 88.55 88.61 88.52 88.52 88.36 88.08 87.95 87.70 87.23 86.87 86.00 85.95 85.84 85.73 85.73 85.62 85.48 85.37 84.79 84.52 84.22 83.72 83.17 82.54 82.07 81.72 81.17 80.62 79.44 78.59 77.63 76.45 75.21 72.16 70.30 68.24 65.79 62.99 56.84 53.30 49.68 45.81 42.35 36.61 34.11 31.74 29.74 27.81 24.51 23.11 21.79 20.64 18.63 17.77
33.66 37.14 38.83 40.66 44.39 46.00 47.55 49.02 51.50 52.45 53.22 53.92 55.09 55.48 55.75 56.10 56.56 56.75 56.97 57.16 57.27 57.29 57.48 57.83 57.86 58.08 58.08 58.13 58.18 58.05 58.05 57.91 57.74 57.69 57.50 57.19 57.08 56.78 56.54 56.13 55.80 55.47 54.70 54.24 53.86 53.42 52.71 52.24 51.83 51.48 50.77 50.38 50.11 49.70 49.26 48.96 48.87 48.76 48.76 48.76 48.70 48.76 48.76 48.81 48.86 48.35 48.05 47.64 47.17 45.78 45.15 44.50 43.92 42.50 41.90 41.30 41.02 41.05 41.07 41.13 41.37 42.54 43.19 43.96 44.83 46.66 47.53 48.37 49.08 49.95 50.36 50.41 50.52 50.57 50.35 50.27 50.30 50.40 50.46 50.54 50.70 50.84 50.89 51.05 51.30 51.51 51.57 51.73 51.89 51.92 51.97 52.11 52.11 52.19 52.24 52.30 52.40 52.35 52.32 52.26 51.93 51.71 51.47 50.95 50.04 49.52 48.95 48.57 47.53 47.17 46.57 46.07 45.09 44.40 43.88 43.23 41.89 41.28 40.60 39.78 38.44 37.64 36.90 36.08 34.57 33.78 32.93 32.16 30.63 29.86 29.18 28.47 27.12 26.41 25.72 25.18 23.97 23.50 23.01 22.35 21.59 20.47 19.84 19.37 18.90 18.16 17.61 17.17 16.95 16.51 16.37 16.37 16.37 16.36 16.42 16.39 16.47 16.63 16.76 16.87 16.95 17.27 17.46 17.54 17.78 18.19 18.49 18.71 19.09 20.20 20.53 21.10 21.48 22.33 22.92 23.42 23.99 24.70 25.95 26.61 27.18 27.64 28.73 29.33 29.79 30.29 31.24 30.69 31.13 31.35 31.86 32.05 32.24 32.46 32.81 32.94 33.16 33.32 34.22 34.38 34.66 35.04 35.28 35.91 36.32 36.64 36.89 37.38 37.62 37.92 38.06 38.54 38.79 38.87 39.01 39.28 39.30 39.41 39.43 39.46 39.65 39.67 39.73 39.75 39.86 39.91 39.94 39.94 39.93 39.96 39.99 40.04 40.15 40.17 40.20 39.42 39.53 39.66 39.80 39.91 40.02 40.15 40.17 40.26 40.31 40.44 40.50 40.63 40.74 40.93 41.17 41.36 41.61 41.77 42.09 42.15 42.26 42.36 42.74 42.93 43.21 43.42 43.70 44.38 44.76 45.09 45.47 46.21 46.78 47.02 47.35 47.90 48.14 48.50 48.82 49.32 50.60 51.01 51.58 52.10 53.28 53.91 54.43 54.22 54.71 55.47 55.86 56.29 56.73 57.74 58.34 59.08 59.85 61.46 62.34 63.24 64.11 65.13 66.99 67.75 68.68 69.64 71.01 71.80 72.41 73.15 73.94 75.56 76.24 76.87 77.39 78.24 78.59 78.87 79.42 79.88 80.59 80.98 81.14 81.41 82.15 82.43 82.92 83.39 83.71 84.62 84.95 85.44 85.99 86.56 87.08 87.58 87.86 88.29 88.95 89.39 89.75 90.08 90.68 90.87 91.01 91.17 91.25 91.20 91.17 91.12 90.92 90.48 90.10 89.66 89.30 88.87 88.23 88.01 87.85 87.77 87.77 87.63 87.57 87.46 87.41 87.35 87.35 87.38 87.44 87.35 87.41 87.32 87.27 87.19 86.77 86.55 86.28 85.98 85.73 84.82 84.44 83.97 83.56 82.90 82.02 81.43 81.13 80.96 80.71 80.69 80.71 80.74 80.77 80.82 80.88 80.93 81.09 81.37 81.92 82.38 82.76 83.09 83.56 84.46 84.71 85.04 85.42 85.75 85.83 85.86 86.03 86.27 86.63 86.85 86.98 87.12 87.37 87.61 87.92 88.14 88.24 88.41 88.68 88.71 88.77 88.82 88.82 88.76 88.68 88.46 88.38 87.80 87.66 87.36 86.49 86.46 86.24 86.19 86.19 86.10 86.05 85.72 85.42 85.09 84.84 84.34 83.55 83.19 82.69 82.39 81.29 80.74 80.19 79.40 78.46 76.02 74.53 72.97 71.12 69.12 63.95 60.98 57.88 54.33 50.70 43.12 40.01 37.12 34.65 32.28 28.24 26.48 24.91 23.53 22.27 20.20 19.13 18.27
33.55 35.19 38.68 40.56 42.52 45.90 47.49 48.99 50.35 52.48 53.27 53.98 54.60 55.47 55.83 56.07 56.32 56.70 56.83 57.02 57.21 57.27 57.35 57.54 57.70 57.81 57.81 57.81 57.89 57.75 57.75 57.75 57.42 57.36 57.14 56.92 56.73 56.46 56.24 55.77 55.47 55.17 54.84 54.16 53.83 53.39 53.11 52.21 51.80 51.47 51.14 50.38 50.13 49.77 49.58 49.09 49.00 48.95 48.94 48.94 48.89 48.89 48.99 49.05 49.13 49.13 48.50 48.20 47.85 47.30 46.04 45.41 44.92 44.34 43.22 42.76 42.51 42.51 42.56 42.61 42.83 43.16 44.27 44.93 45.64 47.30 48.04 48.80 49.32 50.03 50.30 50.35 50.38 50.46 50.32 50.24 50.26 50.40 50.48 50.53 50.61 50.94 51.05 51.26 51.32 51.64 51.67 51.86 51.91 52.05 52.07 52.18 52.21 52.27 52.32 52.37 52.45 52.42 52.40 52.37 52.26 51.76 51.49 51.02 50.58 49.65 49.08 48.75 48.25 47.38 46.86 46.34 45.92 44.72 44.20 43.65 42.91 41.87 41.15 40.36 39.73 38.25 37.51 36.77 35.95 34.49 33.67 32.90 32.14 30.49 29.80 29.09 28.38 27.01 26.26 25.80 25.11 23.85 23.33 22.80 21.72 20.73 20.15 19.80 19.22 18.56 18.01 17.68 17.60 17.18 17.01 17.01 17.01 17.06 17.11 17.08 17.16 17.35 17.48 17.59 17.73 18.05 18.21 18.32 18.70 19.08 19.40 19.65 20.00 21.12 21.39 21.94 22.40 22.75 23.74 24.25 24.83 25.51 26.79 27.34 27.97 28.40 29.44 30.01 30.42 30.94 31.89 32.11 31.89 32.08 32.63 32.82 33.03 33.25 33.60 33.79 33.98 34.14 35.04 35.23 35.53 35.94 36.16 36.81 37.22 37.52 37.74 38.20 38.45 38.75 38.88 39.37 39.59 39.64 39.80 40.07 40.10 40.15 40.18 40.23 40.39 40.42 40.47 40.53 40.60 40.63 40.68 40.68 40.68 40.70 40.73 40.81 40.92 40.94 40.97 41.02 40.33 40.49 40.63 40.71 40.82 40.98 41.00 41.06 41.11 41.16 41.24 41.32 41.40 41.75 41.92 42.05 42.33 42.52 42.73 42.76 42.84 42.89 43.22 43.41 43.60 43.84 44.44 44.80 45.07 45.51 45.89 46.85 47.42 47.64 47.88 48.40 48.56 48.95 49.33 50.29 50.86 51.30 51.85 52.39 53.63 54.25 54.75 55.29 56.04 56.37 56.81 57.24 57.68 58.69 59.32 60.01 60.77 62.28 63.10 63.95 64.77 66.44 67.35 68.06 68.96 69.87 71.18 72.00 72.61 73.26 74.88 75.57 76.22 76.85 77.29 78.17 78.53 78.80 79.37 80.20 80.50 80.91 81.10 81.37 82.20 82.50 82.99 83.46 84.31 84.75 85.05 85.57 86.15 86.75 87.27 87.74 87.85 88.73 89.03 89.47 89.80 90.15 90.73 90.95 91.09 91.28 91.36 91.36 91.33 91.25 91.06 90.67 90.26 89.90 89.57 88.70 88.53 88.34 88.15 88.06 87.93 87.90 87.87 87.79 87.79 87.70 87.65 87.70 87.70 87.65 87.67 87.59 87.51 87.43 87.01 86.82 86.52 86.19 85.56 84.98 84.65 84.21 83.69 82.50 82.02 81.50 81.17 81.00 80.76 80.73 80.75 80.78 80.84 80.86 80.92 80.97 81.16 81.74 81.98 82.51 82.92 83.25 84.29 84.62 84.89 85.28 85.80 86.04 86.13 86.15 86.35 86.78 86.95 87.17 87.31 87.44 87.69 87.91 88.21 88.37 88.68 88.81 88.98 89.01 89.06 89.06 89.11 89.06 89.03 88.78 88.40 88.12 88.04 87.36 86.98 86.92 86.78 86.73 86.70 86.45 86.37 86.23 85.87 85.60 84.85 84.33 84.08 83.64 83.18 82.35 81.83 81.39 80.84 80.07 78.00 76.74 75.31 73.74 71.92 67.52 64.88 62.02 58.97 55.56 47.49 43.89 40.75 37.81 35.30 30.87 28.78 26.99 25.39 22.55 21.45 20.37 19.41 18.61
33.67 35.30 37.05 40.52 42.43 44.23 47.45 48.92 50.34 51.52 53.37 54.16 54.82 55.36 56.07 56.34 56.56 56.70 57.00 57.05 57.13 57.05 57.16 57.40 57.43 57.56 57.51 57.53 57.59 57.48 57.45 57.42 57.25 57.03 56.81 56.57 56.37 56.10 55.85 55.77 55.08 54.76 54.48 54.10 53.58 53.14 52.81 52.45 51.71 51.35 51.03 50.64 50.06 49.74 49.57 49.10 49.02 48.96 48.93 49.01 48.96 49.01 49.12 49.23 49.36 49.39 49.33 48.77 48.52 48.03 47.56 46.30 45.83 45.34 44.85 44.05 43.94 43.94 43.99 44.04 44.18 44.48 45.38 45.92 46.52 47.34 48.74 49.36 49.66 49.94 50.40 50.42 50.42 50.53 50.39 50.31 50.33 50.42 50.63 50.74 50.88 51.09 51.39 51.55 51.61 51.72 51.96 52.04 52.09 52.20 52.25 52.36 52.39 52.50 52.39 52.45 52.53 52.50 52.42 52.41 52.30 51.81 51.53 51.07 50.71 49.81 49.20 48.87 48.32 47.56 47.06 46.57 46.10 45.08 44.59 44.01 43.36 42.29 41.54 40.75 40.17 38.66 37.98 37.21 36.39 34.96 34.11 33.37 32.54 30.92 30.26 29.55 28.84 27.44 26.69 26.12 25.43 24.30 23.67 23.12 22.54 21.18 20.69 20.33 19.78 19.09 18.62 18.43 18.40 17.99 17.85 17.84 17.84 17.86 17.92 17.89 17.94 18.13 18.26 18.40 18.53 18.85 19.02 19.15 19.53 19.75 20.35 20.59 20.95 21.60 22.39 22.91 23.29 23.62 24.68 25.15 25.64 26.38 27.66 28.15 28.81 29.24 30.28 30.80 31.24 31.67 32.63 32.90 33.31 32.79 33.34 33.50 33.80 34.04 34.37 34.59 34.80 34.99 35.43 36.08 36.38 36.82 37.06 37.66 38.05 38.40 38.56 39.00 39.22 39.49 39.62 40.11 40.30 40.36 40.49 40.76 40.79 40.84 40.87 41.03 41.06 41.11 41.19 41.21 41.27 41.32 41.37 41.37 41.37 41.37 41.42 41.50 41.61 41.66 41.68 41.74 41.18 41.32 41.45 41.53 41.64 41.80 41.83 41.88 41.96 41.99 42.01 42.09 42.23 42.55 42.69 42.83 43.02 43.18 43.34 43.37 43.39 43.45 43.72 43.88 44.02 44.32 44.81 45.08 45.43 45.90 46.75 47.27 47.92 48.22 48.44 48.85 48.93 49.26 49.56 50.52 51.09 51.48 52.00 53.15 53.83 54.49 55.15 55.78 56.72 57.10 57.57 58.09 59.02 59.57 60.20 60.83 62.36 63.02 63.76 64.52 65.32 66.83 67.59 68.25 69.10 70.69 71.30 72.06 72.64 73.24 74.78 75.36 75.90 76.53 77.41 77.85 78.21 78.54 79.06 79.85 80.13 80.54 80.76 81.72 81.99 82.32 82.79 83.69 84.21 84.76 85.07 85.56 86.52 86.90 87.40 87.84 88.56 88.89 89.16 89.60 89.90 90.42 90.75 90.97 91.11 91.41 91.36 91.33 91.33 91.25 91.00 90.67 90.37 90.15 89.49 89.10 88.83 88.55 88.39 88.30 88.16 88.16 88.14 88.05 88.00 87.97 87.91 87.94 87.80 87.83 87.86 87.75 87.69 87.50 87.17 86.98 86.65 86.12 85.60 84.97 84.64 84.19 82.87 82.35 82.01 81.48 81.13 80.69 80.60 80.60 80.60 80.66 80.68 80.71 80.76 80.85 81.39 81.70 82.00 82.52 83.34 83.87 84.36 84.74 84.94 85.70 85.92 86.25 86.34 86.39 86.83 86.99 87.13 87.38 87.52 87.82 87.95 88.15 88.45 88.78 88.91 89.08 89.24 89.27 89.35 89.35 89.41 89.38 89.35 89.08 88.96 88.72 88.58 87.43 87.43 87.40 87.18 87.16 86.99 86.88 86.82 86.60 86.19 85.67 85.14 84.79 84.45 83.99 83.35 82.91 82.39 81.98 81.45 79.91 78.75 77.51 76.08 72.81 70.88 68.56 65.98 63.17 57.03 53.64 48.43 44.66 41.38 36.01 33.64 31.49 29.37 27.55 24.46 23.03 21.84 20.74 19.77 18.17
33.61 35.17 36.92 38.50 42.25 44.05 45.66 48.80 50.22 51.40 52.49 54.21 54.87 55.41 55.88 56.42 56.67 56.80 57.05 57.10 57.18 57.07 57.18 57.32 57.34 57.34 57.31 57.29 57.31 57.31 57.06 57.01 56.81 56.65 56.37 56.13 56.04 55.66 55.44 55.33 54.86 54.28 54.06 53.71 53.46 52.86 52.61 52.28 51.81 51.21 50.88 50.60 50.00 49.70 49.56 49.26 49.06 49.01 48.98 48.98 48.97 49.00 49.05 49.11 49.40 49.43 49.51 49.51 49.03 48.70 48.31 47.16 46.70 46.23 45.90 45.24 45.18 45.18 45.21 45.29 45.37 45.64 45.97 46.84 47.39 48.10 48.78 49.63 49.87 50.03 50.22 50.41 50.41 50.46 50.44 50.32 50.35 50.49 50.76 50.89 51.08 51.30 51.65 51.82 51.87 51.98 52.25 52.33 52.36 52.41 52.52 52.60 52.63 52.68 52.70 52.58 52.66 52.68 52.54 52.51 52.43 52.18 51.66 51.17 50.81 50.48 49.44 49.08 48.61 48.06 47.24 46.66 46.30 45.86 44.87 44.32 43.67 43.20 41.96 41.25 40.64 39.90 38.45 37.65 36.80 36.08 34.49 33.78 32.98 32.18 30.73 29.98 29.24 28.58 27.10 26.46 25.78 25.09 24.18 23.60 23.05 22.72 21.08 20.81 20.20 19.79 19.32 19.10 19.10 18.90 18.62 18.62 18.59 18.56 18.67 18.66 18.72 18.74 19.04 19.17 19.28 19.47 19.85 20.01 20.39 20.64 21.26 21.54 21.94 22.55 23.47 23.88 24.24 24.56 25.63 26.09 26.59 27.27 28.53 29.02 29.68 30.11 31.18 31.67 32.14 32.57 33.45 33.72 34.16 33.53 34.10 34.24 34.54 34.78 35.22 35.43 35.68 35.87 36.31 36.96 37.29 37.72 37.94 38.57 38.95 39.25 39.44 39.80 39.99 40.26 40.39 40.86 41.07 41.13 41.21 41.42 41.45 41.53 41.56 41.72 41.77 41.80 41.88 41.93 41.95 42.04 42.14 42.14 42.14 42.14 42.22 42.30 42.46 42.46 42.51 42.56 42.75 42.01 42.25 42.33 42.49 42.58 42.60 42.65 42.76 42.81 42.84 42.89 42.95 43.27 43.44 43.65 43.82 43.92 44.03 44.03 44.08 44.22 44.30 44.46 44.62 44.81 45.36 45.61 46.07 46.54 47.50 47.99 48.67 49.00 49.38 49.52 49.63 49.90 50.12 51.00 51.54 51.87 52.37 53.52 54.26 55.00 55.77 57.28 57.18 57.75 58.19 58.76 59.81 60.33 60.93 61.56 62.99 63.62 64.25 64.99 66.36 67.13 67.87 68.42 69.24 70.86 71.44 72.15 72.67 73.85 74.62 75.17 75.66 76.16 76.90 77.39 77.75 78.05 78.90 79.31 79.70 80.11 80.69 81.32 81.62 81.98 82.55 83.54 84.09 84.64 85.03 86.12 86.51 86.81 87.36 87.80 88.63 89.07 89.32 89.73 90.31 90.58 90.91 91.16 91.27 91.60 91.54 91.52 91.52 91.35 91.24 90.94 90.74 90.50 89.95 89.59 89.31 89.12 88.93 88.79 88.65 88.62 88.62 88.48 88.51 88.43 88.37 88.34 88.26 88.29 88.29 88.09 88.01 87.87 87.54 87.29 86.61 86.36 85.86 85.20 84.84 83.79 83.05 82.44 81.92 81.22 80.70 80.42 80.34 80.28 80.34 80.36 80.39 80.42 80.47 80.83 81.13 81.38 81.71 82.75 83.08 83.74 84.26 84.68 85.28 85.75 85.94 86.32 86.46 86.71 86.90 87.06 87.31 87.72 87.81 88.00 88.14 88.33 88.85 88.93 89.07 89.23 89.40 89.45 89.54 89.53 89.56 89.53 89.31 89.31 89.28 89.17 88.79 88.00 87.97 87.97 87.78 87.69 87.64 87.50 87.42 87.17 86.40 86.18 85.71 85.35 84.66 84.27 84.00 83.67 83.17 82.23 81.54 80.72 79.64 78.43 75.53 73.82 71.95 69.69 67.18 61.70 58.77 55.58 49.46 45.60 39.26 36.75 34.37 32.22 28.30 26.70 25.18 23.78 22.62 20.51 19.69 18.88
32.11 35.01 36.70 38.21 40.01 43.62 45.26 47.01 48.57 51.28 52.35 53.30 54.83 55.35 55.87 56.17 56.64 56.77 56.96 57.04 57.07 56.98 56.98 57.23 57.29 57.29 57.28 57.28 57.28 57.31 57.17 56.98 56.78 56.59 56.37 56.12 56.01 55.85 55.38 55.27 54.83 54.55 54.00 53.67 53.40 53.12 52.63 52.30 51.83 51.25 50.89 50.73 50.45 49.85 49.71 49.46 49.35 49.27 49.24 49.26 49.29 49.29 49.31 49.37 49.56 49.80 49.88 49.91 49.88 49.79 48.96 48.55 47.56 47.09 46.76 46.51 46.12 46.12 46.15 46.18 46.36 46.64 46.96 47.29 48.22 48.85 49.26 49.80 50.05 50.18 50.27 50.43 50.40 50.42 50.40 50.31 50.34 50.47 50.72 50.99 51.21 51.45 51.67 52.00 52.08 52.21 52.43 52.57 52.65 52.73 52.75 52.86 52.89 52.94 52.97 52.96 52.81 52.84 52.72 52.70 52.58 52.34 51.84 51.35 51.02 50.71 49.78 49.39 48.93 48.38 47.55 47.00 46.64 46.26 45.24 44.74 44.08 43.59 42.54 41.86 41.25 40.48 39.05 38.31 37.48 36.74 35.17 34.46 33.69 32.89 31.40 30.69 29.95 29.23 27.74 27.11 26.42 25.73 24.91 24.33 23.80 23.39 22.31 21.34 20.82 20.51 20.04 19.82 19.79 19.65 19.40 19.40 19.37 19.34 19.44 19.41 19.49 19.52 19.82 19.95 20.06 20.25 20.79 20.90 21.28 21.53 22.21 22.45 22.83 23.41 24.34 24.75 25.16 25.46 26.41 26.91 27.37 28.03 29.37 29.83 30.46 30.87 31.97 32.49 32.92 33.36 34.29 34.57 35.03 35.28 34.97 35.11 35.41 35.71 35.76 36.36 36.61 36.80 37.21 37.86 38.19 38.63 38.85 39.48 39.83 40.10 40.35 40.67 40.84 41.11 41.25 41.71 41.93 41.98 42.06 42.28 42.30 42.38 42.41 42.57 42.60 42.62 42.68 42.73 42.78 42.86 42.94 42.94 42.94 42.96 43.04 43.12 43.29 43.28 43.34 43.39 43.58 42.83 43.08 43.13 43.32 43.43 43.46 43.54 43.62 43.67 43.72 43.75 43.80 43.99 44.15 44.37 44.59 44.61 44.69 44.69 44.72 44.80 44.88 45.01 45.15 45.29 45.72 46.00 46.35 46.87 47.78 48.43 49.01 49.37 49.89 50.05 50.21 50.43 50.95 51.36 51.91 52.32 52.65 53.89 54.65 55.40 56.25 57.76 58.58 58.59 59.03 60.10 60.68 61.20 61.77 62.41 63.75 64.24 64.90 65.62 66.85 67.51 68.17 68.75 70.40 71.08 71.63 72.35 72.84 73.99 74.74 75.28 75.72 76.58 76.90 77.40 77.73 78.55 78.74 79.02 79.38 79.76 80.42 81.11 81.44 81.77 82.87 83.42 83.97 84.54 85.01 86.14 86.58 86.83 87.40 88.12 88.61 89.06 89.34 89.78 90.33 90.63 90.99 91.18 91.57 91.70 91.65 91.62 91.56 91.43 91.37 91.12 90.93 90.52 90.16 89.85 89.74 89.36 89.33 89.19 89.14 89.11 88.91 88.89 88.89 88.80 88.77 88.69 88.52 88.55 88.50 88.30 88.19 88.05 87.72 87.53 86.70 86.51 85.98 85.32 84.30 83.69 82.95 82.34 81.85 80.87 80.60 80.35 80.26 80.24 80.26 80.29 80.32 80.34 80.51 80.75 81.11 81.39 82.38 82.82 83.17 83.78 84.27 84.91 85.35 85.73 85.92 86.36 86.64 86.83 87.05 87.22 87.66 87.85 88.01 88.18 88.32 88.76 88.95 89.06 89.22 89.39 89.58 89.61 89.66 89.63 89.63 89.63 89.52 89.55 89.44 89.24 89.19 88.46 88.43 88.37 88.15 88.12 88.01 87.82 87.46 87.02 86.80 86.60 86.08 85.47 85.08 84.70 84.45 84.12 83.26 82.87 82.18 81.36 80.39 77.85 76.36 74.68 72.86 68.33 65.66 62.87 60.00 57.16 46.78 43.14 40.19 37.45 35.13 30.82 28.92 27.18 25.66 24.25 21.79 20.79 19.99 19.19
32.16 33.53 36.68 38.18 39.96 41.80 45.13 46.80 48.37 49.87 52.20 53.16 54.03 55.34 55.89 56.22 56.44 56.76 56.93 56.98 56.93 56.92 56.92 56.98 57.08 57.20 57.17 57.17 57.08 57.11 56.97 56.89 56.58 56.36 56.25 55.84 55.73 55.51 55.34 54.93 54.52 54.21 53.97 53.42 53.22 52.95 52.64 52.12 51.74 51.52 50.85 50.72 50.50 50.16 49.75 49.58 49.47 49.50 49.36 49.36 49.38 49.41 49.49 49.54 49.68 49.95 50.00 50.06 50.03 50.05 49.94 49.27 48.78 47.98 47.62 47.37 47.12 47.07 47.06 47.09 47.17 47.55 47.85 48.18 48.97 49.49 49.76 49.98 50.28 50.36 50.39 50.52 50.41 50.46 50.41 50.43 50.35 50.43 50.68 50.84 51.28 51.60 51.79 51.98 52.20 52.34 52.56 52.74 52.85 52.91 52.96 53.07 53.07 53.09 53.15 53.17 53.22 53.22 53.04 52.90 52.74 52.52 52.27 51.61 51.25 50.94 50.50 49.57 49.13 48.55 48.25 47.26 46.92 46.48 45.82 45.00 44.39 44.00 43.01 42.22 41.69 40.98 39.57 38.83 38.00 37.40 35.69 34.97 34.20 33.41 32.03 31.31 30.54 29.82 28.34 27.78 27.12 26.43 25.52 24.92 24.45 24.00 22.93 22.73 21.60 21.32 20.82 20.63 20.54 20.46 20.20 20.20 20.17 20.17 20.25 20.24 20.32 20.35 20.56 20.73 20.83 21.08 21.68 21.81 22.20 22.44 23.21 23.40 23.78 24.38 25.23 25.67 26.02 26.35 27.28 27.74 28.21 28.87 30.24 30.65 31.30 31.72 32.78 33.39 33.77 34.23 35.11 35.41 35.90 36.15 36.42 35.96 36.26 36.56 36.64 37.24 37.48 37.70 38.08 38.77 39.10 39.53 39.75 40.35 40.68 40.95 41.20 41.55 41.72 41.94 42.07 42.53 42.75 42.81 42.86 43.08 43.13 43.18 43.21 43.37 43.37 43.39 43.45 43.50 43.52 43.60 43.69 43.71 43.74 43.76 43.81 43.95 44.11 44.11 44.16 44.19 44.43 44.54 43.91 43.93 44.15 44.20 44.23 44.31 44.41 44.44 44.49 44.49 44.52 44.73 44.82 44.98 45.17 45.25 45.25 45.25 45.24 45.32 45.35 45.43 45.54 45.75 45.95 46.22 46.55 47.53 48.03 48.69 49.35 49.84 50.36 50.55 50.66 50.91 51.43 51.84 52.39 52.80 53.92 54.39 55.13 55.99 56.84 58.38 59.20 59.81 59.60 60.81 61.27 61.88 62.43 63.58 64.27 64.76 65.31 66.11 67.18 67.84 68.47 68.91 70.48 71.19 71.80 72.43 73.39 74.02 74.74 75.23 75.70 76.44 76.83 77.27 77.57 78.39 78.56 78.86 79.36 80.10 80.46 81.17 81.47 81.86 82.93 83.51 84.06 84.72 85.63 86.29 86.79 87.01 87.91 88.30 88.82 89.00 89.27 90.04 90.26 90.62 90.98 91.34 91.64 91.75 91.67 91.69 91.58 91.47 91.42 91.20 90.89 90.67 90.34 90.12 90.01 89.59 89.59 89.51 89.43 89.37 89.18 89.09 89.04 88.98 88.93 88.87 88.70 88.70 88.57 88.51 88.34 88.12 87.76 87.07 86.71 86.55 86.02 84.89 84.26 83.65 82.90 82.27 81.08 80.77 80.36 80.11 79.97 79.97 79.99 80.02 80.05 80.13 80.24 80.46 80.82 81.56 82.16 82.69 83.07 83.71 84.70 84.94 85.44 85.85 86.07 86.60 86.73 86.98 87.17 87.61 87.81 88.03 88.19 88.36 88.63 88.96 89.15 89.26 89.57 89.73 89.76 89.79 89.84 89.89 89.87 89.81 89.73 89.78 89.70 89.59 89.48 88.86 88.72 88.47 88.44 88.44 88.27 87.94 87.69 87.30 87.17 86.89 86.06 85.73 85.42 85.04 84.82 84.10 83.79 83.38 82.74 81.00 79.98 78.63 77.22 75.53 71.80 69.48 66.89 64.13 60.95 53.30 49.57 44.85 41.23 38.33 33.71 31.33 29.40 27.63 24.58 23.28 22.15 21.15 20.29 18.66
32.10 33.44 35.01 38.10 39.85 41.72 43.33 46.70 48.29 49.77 51.09 53.25 54.13 54.87 56.02 56.40 56.65 56.81 57.06 57.11 57.08 57.13 57.05 57.02 57.05 57.10 57.04 56.94 56.91 56.91 56.72 56.63 56.47 56.05 56.00 55.86 55.53 55.31 55.06 54.81 54.31 54.01 53.71 53.46 53.02 52.77 52.47 51.92 51.50 51.36 51.03 50.67 50.45 50.18 49.87 49.54 49.46 49.51 49.45 49.42 49.48 49.50 49.53 49.55 49.72 49.88 50.04 50.10 50.09 50.15 50.12 49.98 49.81 49.11 48.48 48.23 47.98 47.95 47.95 47.98 48.06 48.44 48.74 48.98 49.29 50.02 50.21 50.35 50.49 50.59 50.59 50.64 50.62 50.59 50.50 50.53 50.41 50.55 50.85 51.07 51.59 51.92 52.08 52.35 52.57 52.65 52.87 52.95 53.09 53.17 53.25 53.33 53.38 53.43 53.49 53.49 53.51 53.51 53.51 53.05 52.89 52.67 52.42 51.78 51.45 51.09 50.71 49.74 49.30 48.75 48.45 47.37 47.10 46.68 46.05 45.22 44.64 44.31 43.92 42.44 41.91 41.28 40.53 39.18 38.36 37.81 37.09 35.57 34.77 34.00 33.23 31.85 31.08 30.42 29.73 28.35 27.71 27.02 26.69 25.59 25.09 24.67 24.18 23.46 23.10 22.10 21.60 21.43 21.32 21.26 21.04 21.03 21.00 21.03 21.11 21.10 21.18 21.21 21.42 21.64 21.75 21.99 22.59 22.70 23.08 23.33 24.07 24.31 24.64 25.22 26.06 26.53 26.91 27.16 28.14 28.64 29.10 29.79 31.08 31.52 32.17 32.56 33.05 34.23 34.61 35.08 35.57 36.34 36.83 37.08 37.35 37.87 37.19 37.46 37.57 38.20 38.47 38.66 39.02 39.73 40.00 40.44 40.63 41.26 41.59 41.86 42.02 42.35 42.51 42.76 42.84 43.25 43.44 43.52 43.63 43.79 43.82 43.87 43.90 44.06 44.06 44.05 44.11 44.19 44.24 44.27 44.35 44.34 44.45 44.48 44.53 44.61 44.80 44.83 44.88 44.91 45.12 45.26 45.45 44.73 44.97 45.03 45.05 45.11 45.21 45.24 45.27 45.29 45.40 45.53 45.61 45.70 45.86 45.94 45.94 45.91 45.88 45.93 45.96 45.98 46.06 46.28 46.47 46.69 46.99 47.98 48.58 49.24 49.90 50.73 51.08 51.25 51.41 51.63 52.15 52.53 53.08 53.52 54.70 55.20 56.00 56.82 58.45 59.22 60.04 60.62 60.88 61.37 61.76 62.42 62.91 64.01 64.67 65.17 65.72 66.98 67.53 68.11 68.80 69.90 70.67 71.35 71.91 72.59 73.53 74.02 74.68 75.10 75.92 76.25 76.61 77.08 77.63 78.09 78.34 78.70 79.14 80.02 80.43 81.18 81.51 82.53 82.97 83.49 84.12 85.20 85.69 86.30 86.80 87.07 88.06 88.42 88.92 89.19 89.81 90.17 90.39 90.78 91.05 91.44 91.71 91.85 91.77 91.77 91.68 91.57 91.52 91.18 91.07 90.88 90.58 90.38 90.11 89.94 89.94 89.86 89.74 89.69 89.58 89.47 89.38 89.19 89.16 89.16 89.05 89.02 88.85 88.72 88.55 88.24 87.69 87.22 86.75 86.50 85.31 84.84 84.24 83.63 82.91 81.55 80.89 80.64 80.17 79.75 79.70 79.70 79.69 79.72 79.75 79.83 79.94 80.13 80.90 81.29 81.92 82.56 82.86 84.07 84.51 84.87 85.37 85.86 86.47 86.66 86.80 87.02 87.40 87.71 87.87 88.07 88.23 88.59 88.75 89.11 89.28 89.52 89.63 89.77 89.80 89.85 89.85 89.99 89.99 89.93 89.82 89.88 89.82 89.74 89.60 89.09 89.00 88.76 88.75 88.73 88.23 88.17 88.01 87.73 87.56 86.93 86.57 86.23 85.93 85.32 85.07 84.66 84.21 83.94 82.66 81.75 80.78 79.51 78.13 74.89 72.96 70.64 68.04 61.98 58.94 54.46 50.90 46.33 39.09 36.51 34.27 31.89 29.85 26.33 24.86 23.56 22.42 21.40 19.76 18.93
30.84 33.52 35.06 36.62 39.83 41.64 43.26 45.01 48.28 49.78 51.10 52.34 54.20 54.97 55.57 56.45 56.67 56.88 56.99 57.13 57.13 57.18 57.07 57.07 57.09 57.20 57.09 57.06 56.99 57.01 56.76 56.68 56.51 56.07 56.02 55.85 55.63 55.38 55.13 54.85 54.69 54.03 53.72 53.47 53.14 52.78 52.45 52.20 51.51 51.40 51.07 50.82 50.52 50.24 49.99 49.88 49.63 49.68 49.68 49.62 49.65 49.68 49.67 49.75 49.89 50.05 50.13 50.32 50.29 50.38 50.40 50.26 50.18 50.15 49.28 49.06 48.84 48.79 48.78 48.81 48.89 49.00 49.52 49.76 50.01 50.23 50.53 50.61 50.74 50.74 50.74 50.82 50.74 50.71 50.65 50.65 50.56 50.72 51.00 51.19 51.46 52.12 52.31 52.56 52.80 52.96 53.16 53.24 53.26 53.45 53.53 53.59 53.67 53.69 53.75 53.72 53.74 53.74 53.74 53.60 53.17 52.93 52.62 52.43 51.71 51.32 50.94 50.41 49.56 48.98 48.73 48.23 47.35 47.07 46.44 45.69 45.14 44.81 44.42 43.10 42.49 41.77 41.08 39.79 39.07 38.43 37.74 36.17 35.40 34.57 33.77 32.39 31.62 31.01 30.26 28.86 28.28 27.56 27.25 26.17 25.68 25.29 24.79 24.18 23.82 23.57 23.46 22.23 22.18 22.12 21.92 21.86 21.84 21.86 21.91 21.96 22.02 22.04 22.12 22.45 22.58 22.83 23.18 23.51 23.89 24.14 24.49 25.12 25.48 26.02 26.66 27.34 27.75 27.97 28.38 29.45 29.91 30.57 31.26 32.30 32.93 33.37 33.89 35.07 35.46 35.92 36.42 37.18 37.65 37.95 38.20 38.80 39.13 38.47 38.58 39.29 39.59 39.78 40.09 40.69 40.96 41.40 41.62 42.19 42.44 42.71 42.88 43.20 43.39 43.64 43.69 44.02 44.18 44.24 44.29 44.51 44.53 44.61 44.64 44.77 44.77 44.82 44.91 44.98 45.01 45.01 45.09 45.25 45.25 45.27 45.33 45.44 45.60 45.62 45.65 45.68 45.89 46.06 46.22 46.25 45.72 45.77 45.80 45.85 45.99 46.01 46.04 46.06 46.20 46.28 46.36 46.44 46.46 46.46 46.49 46.43 46.35 46.34 46.37 46.39 46.45 46.58 46.69 46.91 47.24 48.12 48.72 49.44 50.15 51.09 51.55 51.77 51.91 52.49 52.76 53.12 53.75 54.25 55.43 55.95 56.72 57.55 59.15 59.95 60.74 61.32 62.29 62.10 62.52 63.12 64.06 64.63 65.24 65.71 66.23 67.36 67.85 68.38 68.98 70.08 70.83 71.49 72.01 73.09 73.53 74.05 74.57 75.04 75.89 76.20 76.55 76.97 77.46 77.96 78.23 78.59 79.50 79.94 80.35 81.07 81.46 82.45 82.89 83.39 84.08 85.15 85.62 86.28 86.81 87.77 88.19 88.46 88.90 89.12 89.80 90.19 90.46 90.76 91.29 91.45 91.70 91.81 91.81 91.75 91.70 91.59 91.53 91.23 91.20 90.98 90.73 90.48 90.31 90.12 90.12 90.01 89.98 89.92 89.78 89.73 89.50 89.39 89.39 89.34 89.14 89.14 88.84 88.70 88.50 87.92 87.65 87.15 86.68 85.96 85.27 84.80 84.19 83.58 82.25 81.59 80.92 80.39 79.59 79.48 79.42 79.42 79.42 79.45 79.47 79.56 79.67 80.27 80.66 81.02 81.65 82.23 83.28 83.86 84.33 84.74 85.32 86.04 86.39 86.64 86.81 87.19 87.33 87.63 87.83 87.99 88.46 88.63 88.76 89.18 89.37 89.56 89.64 89.73 89.75 89.84 89.89 90.03 90.00 89.86 89.91 89.86 89.83 89.75 89.47 89.29 89.21 88.85 88.82 88.60 88.32 88.26 88.10 87.74 87.54 87.13 86.85 86.49 85.83 85.63 85.30 84.97 84.66 83.89 83.22 82.31 81.34 78.87 77.38 75.75 73.81 71.57 66.09 62.91 59.61 56.10 52.69 43.37 39.96 37.25 35.00 30.49 28.60 26.88 25.42 24.11 21.95 21.14 20.34 19.50
30.99 32.28 35.19 36.78 38.21 41.67 43.29 45.07 46.72 49.77 51.11 52.35 54.21 54.98 55.64 56.11 56.71 56.93 57.04 57.17 57.20 57.28 57.22 57.14 57.16 57.22 57.10 57.05 56.99 56.96 56.92 56.64 56.50 56.31 55.98 55.81 55.51 55.42 55.01 54.76 54.56 54.21 53.65 53.40 53.07 52.71 52.41 52.13 51.88 51.30 51.00 50.83 50.75 50.22 50.06 49.94 49.75 49.77 49.77 49.74 49.74 49.74 49.82 49.87 50.01 50.20 50.28 50.31 50.44 50.49 50.52 50.49 50.46 50.43 50.35 50.29 49.51 49.48 49.51 49.53 49.64 49.75 49.99 50.35 50.57 50.65 50.81 50.86 51.00 50.91 50.86 50.94 50.85 50.82 50.79 50.79 50.71 50.73 51.06 51.31 51.55 52.21 52.37 52.62 52.87 53.08 53.30 53.36 53.41 53.57 53.65 53.68 53.76 53.81 53.84 53.81 53.81 53.83 53.86 53.77 53.64 53.14 52.77 52.55 51.83 51.47 51.05 50.56 49.62 49.12 48.90 48.35 47.49 47.16 46.55 46.36 45.33 45.03 44.67 44.01 42.74 42.05 41.36 40.83 39.39 38.73 38.15 37.41 35.94 35.20 34.42 33.12 32.35 31.74 30.99 29.56 29.11 28.40 28.03 26.98 26.46 26.10 25.60 24.93 24.65 24.43 24.29 23.87 22.98 22.90 22.76 22.70 22.67 22.69 22.74 22.79 22.85 22.87 22.95 23.22 23.36 23.60 23.90 24.26 24.64 24.91 25.27 25.90 26.28 26.83 27.49 28.18 28.59 28.80 29.24 30.29 30.73 31.41 32.04 33.09 33.75 34.24 34.76 35.94 36.36 36.80 37.26 38.03 38.50 38.83 39.10 39.65 40.00 40.42 39.46 40.17 40.47 40.72 41.02 41.59 41.84 42.25 42.50 43.04 43.29 43.54 43.73 44.05 44.22 44.41 44.46 44.84 45.01 45.06 45.12 45.33 45.36 45.44 45.46 45.60 45.60 45.65 45.76 45.84 45.86 45.86 45.94 46.10 46.10 46.13 46.18 46.34 46.45 46.48 46.48 46.50 46.75 46.91 47.05 47.07 47.32 46.54 46.57 46.62 46.76 46.78 46.81 46.83 46.91 46.99 47.10 47.18 47.13 47.04 47.01 46.90 46.76 46.70 46.73 46.75 46.83 46.88 46.97 47.16 47.49 48.28 48.83 49.55 50.32 51.34 51.83 52.14 52.33 53.10 53.43 53.81 54.45 55.46 56.15 56.68 57.42 59.07 59.79 60.59 61.39 61.97 62.91 63.32 63.11 63.66 64.60 65.09 65.73 66.19 67.32 67.74 68.23 68.76 69.75 70.41 71.10 71.68 72.23 73.25 73.69 74.21 74.65 75.65 75.95 76.25 76.61 77.27 77.52 78.01 78.29 78.65 79.56 80.03 80.50 81.21 81.90 82.54 82.95 83.47 84.72 85.21 85.71 86.37 86.95 87.92 88.36 88.58 88.99 89.57 89.91 90.20 90.47 91.00 91.22 91.33 91.55 91.66 91.63 91.57 91.52 91.46 91.27 91.16 91.16 91.02 90.63 90.60 90.52 90.29 90.27 90.15 90.18 90.10 89.96 89.79 89.68 89.57 89.54 89.40 89.15 89.07 88.74 88.54 88.04 87.71 87.43 86.96 86.44 85.77 85.02 84.50 83.91 82.72 82.06 81.39 80.76 79.76 79.56 79.45 79.40 79.39 79.42 79.42 79.45 79.53 79.86 80.22 80.60 81.02 81.71 82.70 83.36 83.89 84.39 85.38 85.74 86.12 86.51 86.73 87.17 87.34 87.48 87.72 87.86 88.33 88.63 88.77 88.96 89.49 89.54 89.68 89.76 89.85 89.93 89.95 89.98 90.12 90.09 89.95 90.01 89.92 89.89 89.64 89.53 89.45 89.22 88.83 88.80 88.63 88.38 88.33 87.94 87.86 87.63 87.36 87.11 86.36 86.02 85.80 85.58 84.97 84.72 84.28 83.72 82.89 80.87 79.62 78.12 76.54 74.63 69.81 66.93 63.72 60.37 53.41 49.84 44.43 41.00 38.20 33.13 30.96 29.05 27.27 25.72 23.22 22.25 21.44 20.64 19.00
31.26 32.55 33.92 37.05 38.48 40.18 43.37 45.13 46.78 48.40 51.15 52.41 53.37 55.10 55.71 56.23 56.61 57.05 57.21 57.32 57.32 57.37 57.35 57.29 57.34 57.28 57.23 57.20 57.14 57.14 57.08 56.89 56.43 56.24 55.96 55.71 55.41 55.35 55.16 54.60 54.38 54.05 53.86 53.22 52.94 52.83 52.20 51.98 51.81 51.37 50.92 50.76 50.64 50.42 50.03 49.90 49.84 49.78 49.78 49.75 49.75 49.72 49.77 49.82 49.88 50.18 50.26 50.28 50.45 50.50 50.53 50.55 50.52 50.55 50.49 50.54 50.54 50.57 50.12 50.14 50.28 50.36 50.58 50.85 50.99 50.98 51.04 51.06 51.14 51.09 51.06 51.08 51.00 50.97 50.99 50.96 50.93 50.93 51.32 51.59 51.81 52.08 52.57 52.85 53.23 53.40 53.72 53.75 53.80 53.86 53.99 54.07 54.15 54.15 54.15 54.15 54.12 54.09 54.09 53.98 53.84 53.28 52.95 52.55 52.17 51.50 51.09 50.67 50.20 49.21 48.93 48.43 47.85 47.22 46.69 46.49 45.47 45.17 44.83 44.23 42.93 42.29 41.57 41.13 39.77 39.17 38.53 37.75 36.34 35.65 34.85 34.27 32.80 32.31 31.61 30.87 29.76 29.09 28.76 28.23 27.21 26.85 26.35 25.68 25.40 25.24 25.12 24.62 24.56 23.76 23.62 23.58 23.55 23.58 23.63 23.68 23.73 23.76 23.84 24.08 24.22 24.44 24.71 25.04 25.45 25.72 26.08 26.76 27.15 27.69 28.38 29.07 29.42 29.64 30.11 31.13 31.59 32.25 32.88 33.96 34.62 35.11 35.63 36.82 37.23 37.67 38.13 38.99 39.40 39.70 40.03 40.58 40.96 41.32 41.40 42.25 41.54 41.70 42.00 42.58 42.77 43.21 43.43 43.95 44.17 44.42 44.58 44.93 45.10 45.23 45.29 45.64 45.83 45.86 45.94 46.10 46.13 46.29 46.32 46.42 46.42 46.48 46.53 46.64 46.69 46.71 46.80 46.93 46.96 46.98 47.03 47.20 47.25 47.30 47.33 47.52 47.60 47.76 47.90 47.93 48.09 48.14 47.40 47.42 47.53 47.55 47.58 47.61 47.66 47.77 47.87 47.90 47.84 47.76 47.70 47.56 47.33 47.28 47.28 47.30 47.33 47.35 47.43 47.60 48.20 48.70 49.27 50.05 50.85 51.86 52.42 52.75 53.08 53.82 54.20 54.64 55.28 56.22 56.93 57.48 58.20 59.88 60.55 61.37 62.12 63.08 63.61 63.99 64.32 64.31 65.19 65.66 66.10 66.54 67.59 68.09 68.47 69.05 69.96 70.62 71.26 71.81 73.05 73.35 73.77 74.26 74.68 75.67 75.95 76.28 76.58 77.21 77.49 77.99 78.23 79.06 79.45 79.97 80.52 81.60 81.96 82.59 83.01 83.48 84.75 85.25 85.74 86.41 87.24 87.90 88.40 88.56 89.28 89.58 89.94 90.30 90.57 91.06 91.28 91.39 91.62 91.67 91.70 91.64 91.58 91.53 91.33 91.22 91.22 91.11 90.83 90.75 90.67 90.50 90.41 90.36 90.36 90.27 90.05 89.88 89.75 89.61 89.58 89.19 89.05 88.88 88.55 88.13 87.74 87.41 87.11 86.63 85.80 85.47 84.72 84.14 82.95 82.53 81.86 81.12 80.50 79.59 79.31 79.31 79.23 79.23 79.25 79.25 79.28 79.47 79.69 80.02 80.44 80.85 82.09 82.59 83.26 83.81 84.83 85.27 85.63 86.07 86.41 86.85 87.12 87.26 87.40 87.78 88.09 88.31 88.64 88.78 89.36 89.55 89.58 89.66 89.74 89.82 89.88 89.88 89.93 90.10 90.07 89.96 89.98 89.93 89.82 89.65 89.51 89.43 88.95 88.92 88.89 88.72 88.50 88.28 88.11 88.00 87.80 87.36 87.05 86.67 86.36 86.03 85.47 85.25 85.03 84.66 84.14 82.44 81.45 80.20 78.78 75.34 73.15 70.60 67.72 64.53 57.79 54.16 50.41 45.92 42.07 36.38 33.74 31.55 29.60 26.19 24.83 23.60 22.55 21.74 20.10 19.26
31.66 33.03 34.38 35.92 38.91 40.62 42.19 45.30 46.86 48.51 49.94 52.50 53.52 54.46 55.86 56.32 56.68 56.98 57.28 57.42 57.44 57.39 57.44 57.38 57.35 57.32 57.27 57.27 57.24 57.18 57.15 56.96 56.90 56.48 56.11 56.00 55.56 55.47 55.28 54.97 54.45 54.20 53.98 53.42 53.06 52.92 52.73 52.04 51.87 51.43 51.23 50.79 50.62 50.40 49.98 49.90 49.82 49.76 49.76 49.73 49.72 49.69 49.72 49.77 49.83 50.21 50.29 50.32 50.48 50.50 50.53 50.56 50.50 50.55 50.55 50.57 50.79 50.73 50.79 50.59 50.75 50.81 50.97 51.11 51.21 51.18 51.24 51.15 51.31 51.20 51.15 51.20 51.11 51.08 51.11 51.08 51.08 51.08 51.21 51.73 51.95 52.28 52.64 53.10 53.54 53.73 53.98 54.03 54.06 54.14 54.19 54.27 54.33 54.35 54.35 54.35 54.29 54.32 54.26 54.12 54.01 53.76 53.06 52.76 52.37 51.62 51.20 50.84 50.40 49.40 49.13 48.57 47.94 47.27 46.74 46.58 46.19 45.33 45.00 44.36 43.70 42.37 41.79 41.32 40.01 39.43 38.77 37.99 36.66 35.97 35.25 34.70 33.23 32.76 32.09 31.37 30.40 29.77 29.46 28.93 27.93 27.57 27.04 26.57 26.13 25.90 25.82 25.54 25.34 25.31 25.14 24.33 24.30 24.33 24.35 24.40 24.46 24.48 24.56 24.80 24.94 25.16 25.46 25.79 26.22 26.44 26.83 27.57 27.92 28.50 29.22 29.90 30.26 30.48 30.86 31.88 32.32 32.95 33.53 34.74 35.43 35.90 36.42 37.60 38.04 38.48 39.01 39.86 40.27 40.52 40.88 41.48 41.81 42.28 42.39 43.21 43.49 42.77 43.02 43.54 43.70 44.12 44.36 44.91 45.10 45.32 45.49 45.84 46.00 46.11 46.17 46.49 46.63 46.66 46.74 46.87 46.90 47.03 47.11 47.22 47.22 47.25 47.30 47.38 47.43 47.46 47.54 47.76 47.78 47.81 47.83 47.97 48.08 48.10 48.15 48.37 48.45 48.56 48.67 48.83 48.89 48.97 48.99 48.27 48.30 48.33 48.35 48.38 48.43 48.45 48.54 48.56 48.50 48.39 48.30 48.16 47.94 47.85 47.85 47.82 47.87 47.93 48.01 48.12 48.56 49.02 49.58 50.27 51.70 52.17 52.83 53.19 54.07 54.51 54.90 55.37 56.08 57.08 57.77 58.32 59.09 60.78 61.44 62.27 63.01 64.01 64.48 64.84 65.17 66.08 65.73 66.20 66.56 67.33 67.91 68.38 68.76 69.32 70.14 70.83 71.39 71.91 73.15 73.46 73.82 74.37 75.20 75.61 75.89 76.24 76.85 77.10 77.40 77.90 78.09 78.92 79.28 79.80 80.41 81.55 81.90 82.51 82.95 84.17 84.67 85.19 85.75 86.94 87.24 87.88 88.29 88.46 89.20 89.40 89.81 90.14 90.61 91.07 91.29 91.38 91.71 91.65 91.68 91.65 91.62 91.54 91.37 91.26 91.26 91.01 90.92 90.81 90.73 90.56 90.51 90.48 90.48 90.31 90.20 90.03 89.86 89.78 89.64 89.28 89.14 88.97 88.33 88.14 87.78 87.47 87.17 86.11 85.83 85.47 84.69 83.67 83.00 82.58 81.92 81.17 80.08 79.61 79.33 79.14 79.03 79.03 79.06 79.06 79.08 79.30 79.52 79.80 80.21 81.37 81.93 82.40 83.06 84.03 84.67 85.16 85.50 85.94 86.49 86.68 87.02 87.24 87.59 87.73 88.09 88.34 88.62 88.87 89.20 89.42 89.47 89.66 89.72 89.72 89.77 89.80 89.91 89.94 89.91 89.85 89.85 89.79 89.74 89.57 89.40 89.15 88.87 88.95 88.90 88.73 88.50 88.34 88.20 88.11 87.61 87.45 87.20 86.86 86.56 86.06 85.78 85.58 85.33 84.58 83.89 83.08 82.14 80.97 78.06 76.20 73.97 71.37 68.48 61.93 58.65 55.13 51.27 43.02 39.83 37.13 34.52 32.27 28.52 26.88 25.49 24.29 23.26 21.65 20.81 20.00
30.93 33.68 35.06 36.65 38.28 41.22 42.79 44.08 47.11 48.68 50.06 51.35 53.56 54.49 55.26 56.31 56.69 56.99 57.21 57.43 57.48 57.43 57.51 57.42 57.39 57.39 57.28 57.30 57.25 57.22 57.24 56.99 56.96 56.57 56.35 56.24 55.93 55.57 55.34 55.04 54.76 54.23 53.96 53.71 53.07 52.93 52.71 52.27 51.77 51.35 51.21 50.99 50.63 50.40 50.26 50.01 49.93 49.90 49.90 49.89 49.92 49.89 49.86 49.86 49.91 50.10 50.37 50.37 50.54 50.54 50.59 50.61 50.56 50.61 50.63 50.71 50.93 51.01 51.09 51.04 51.12 51.08 51.17 51.30 51.38 51.32 51.32 51.27 51.37 51.23 51.20 51.17 51.23 51.20 51.22 51.19 51.16 51.16 51.27 51.54 52.01 52.37 52.75 53.25 53.71 53.93 53.99 54.29 54.34 54.39 54.45 54.61 54.64 54.63 54.60 54.60 54.43 54.46 54.37 54.23 54.04 53.76 53.04 52.71 52.35 52.07 51.18 50.90 50.43 49.93 49.18 48.74 48.13 47.52 47.02 46.74 46.46 45.46 45.21 44.63 44.02 42.80 42.30 41.83 41.17 39.86 39.25 38.48 37.87 36.51 35.82 35.29 34.60 33.32 32.71 32.05 31.13 30.55 30.21 29.71 28.71 28.35 27.85 27.35 26.96 26.71 26.59 26.34 26.20 26.14 25.97 25.92 25.05 25.08 25.10 25.15 25.23 25.26 25.34 25.47 25.69 25.91 26.18 26.46 26.98 27.17 27.58 28.29 28.70 29.20 29.94 30.66 31.01 31.26 31.62 32.66 33.08 33.76 34.34 35.50 36.19 36.71 37.21 38.39 38.86 39.33 39.82 40.71 41.09 41.39 41.75 42.27 42.71 43.13 43.21 44.03 44.31 44.55 44.01 44.47 44.66 45.10 45.27 45.85 46.04 46.23 46.42 46.78 46.86 46.97 47.02 47.35 47.48 47.51 47.59 47.72 47.75 47.89 47.97 48.07 48.07 48.07 48.12 48.20 48.26 48.28 48.36 48.58 48.61 48.63 48.66 48.79 48.90 48.95 48.95 49.20 49.28 49.39 49.50 49.66 49.68 49.77 49.82 49.93 49.13 49.12 49.15 49.20 49.23 49.23 49.28 49.25 49.19 49.08 48.99 48.82 48.63 48.57 48.54 48.51 48.59 48.61 48.67 48.75 49.05 49.41 49.90 50.54 51.95 52.47 53.22 53.60 54.51 54.98 55.51 55.98 57.33 57.80 58.55 59.13 60.76 61.50 62.19 63.00 63.77 64.71 65.29 65.54 65.84 66.75 67.06 66.93 67.24 67.90 68.39 68.81 69.17 70.11 70.55 71.21 71.68 72.79 73.39 73.67 74.11 74.58 75.30 75.71 75.96 76.32 76.90 77.15 77.45 77.92 78.53 78.97 79.33 79.86 81.05 81.60 81.93 82.59 83.54 84.23 84.73 85.22 85.80 86.97 87.30 87.91 88.32 88.93 89.21 89.40 89.82 90.34 90.56 90.94 91.11 91.22 91.52 91.52 91.55 91.49 91.41 91.44 91.30 91.24 91.18 91.02 90.93 90.85 90.74 90.60 90.57 90.54 90.51 90.26 90.26 90.12 89.98 89.73 89.62 89.28 89.17 88.95 88.31 88.06 87.67 87.39 86.47 85.92 85.67 85.22 83.89 83.44 82.80 82.33 81.66 80.47 80.08 79.58 79.30 78.99 79.08 79.08 79.11 79.11 79.21 79.35 79.57 79.85 80.73 81.40 81.95 82.42 83.61 84.08 84.69 85.14 85.50 86.24 86.52 86.71 87.02 87.38 87.62 87.73 88.12 88.37 88.81 88.90 89.26 89.45 89.64 89.72 89.78 89.78 89.83 89.89 89.94 89.97 89.91 89.77 89.66 89.63 89.55 89.41 89.18 89.04 88.76 88.87 88.65 88.54 88.45 88.28 88.17 87.95 87.73 87.53 87.31 86.70 86.44 86.22 86.00 85.91 85.36 84.97 84.38 83.58 82.69 80.24 78.74 76.88 74.63 69.24 66.13 62.76 59.40 55.96 47.79 43.76 40.59 37.92 33.00 30.99 29.18 27.54 26.15 23.73 22.86 22.05 21.22 20.44
31.66 33.01 35.87 37.50 39.10 40.42 43.56 44.74 46.12 49.07 50.37 51.63 52.76 54.64 55.41 55.98 56.87 57.14 57.33 57.44 57.58 57.52 57.60 57.57 57.46 57.46 57.40 57.37 57.37 57.34 57.36 57.14 57.08 56.92 56.61 56.47 56.33 56.08 55.49 55.16 54.88 54.27 53.96 53.71 53.41 52.91 52.66 52.24 52.05 51.35 51.21 50.99 50.66 50.46 50.35 50.21 50.10 50.04 50.04 50.03 50.03 50.00 50.00 50.02 50.05 50.30 50.49 50.48 50.65 50.67 50.67 50.72 50.69 50.72 50.69 50.80 50.96 50.96 51.10 51.07 51.23 51.28 51.36 51.44 51.55 51.44 51.46 51.38 51.40 51.37 51.34 51.40 51.40 51.36 51.39 51.36 51.36 51.36 51.49 51.77 52.23 52.59 52.95 53.20 54.02 54.21 54.40 54.62 54.73 54.81 54.87 54.97 54.97 54.94 54.86 54.83 54.66 54.66 54.54 54.26 54.10 53.76 53.43 52.71 52.32 52.01 51.04 50.71 50.32 49.88 49.13 48.74 48.15 47.85 47.07 46.79 46.51 45.93 45.24 44.68 44.07 42.96 42.41 41.93 41.35 40.16 39.46 38.72 38.27 36.86 36.25 35.72 35.11 33.97 33.36 32.66 32.19 31.16 30.94 30.44 29.88 29.13 28.60 28.16 27.74 27.51 27.40 27.15 26.95 26.89 26.78 26.72 26.69 26.71 25.93 25.99 26.06 26.09 26.17 26.30 26.52 26.71 27.01 27.23 27.81 28.00 28.44 28.82 29.46 30.03 30.72 30.94 31.82 32.04 32.45 33.45 33.83 34.41 34.99 36.15 36.86 37.39 37.97 39.18 39.65 40.15 40.61 41.52 41.96 42.27 42.60 43.20 43.59 44.00 44.08 44.85 45.18 45.40 45.73 46.20 45.51 45.93 46.09 46.67 46.86 47.05 47.24 47.60 47.68 47.76 47.82 48.14 48.25 48.28 48.36 48.49 48.55 48.68 48.74 48.87 48.87 48.90 48.98 49.06 49.08 49.08 49.16 49.38 49.43 49.46 49.51 49.62 49.70 49.81 49.81 50.05 50.13 50.21 50.32 50.46 50.48 50.56 50.62 50.72 50.75 50.75 49.98 50.03 50.03 50.02 50.08 50.05 49.99 49.88 49.76 49.45 49.42 49.34 49.25 49.25 49.28 49.30 49.33 49.38 49.63 49.90 50.32 50.95 52.30 52.83 53.60 54.10 54.93 55.40 55.95 56.59 57.94 58.52 59.27 59.88 61.43 62.26 62.95 63.72 65.05 65.47 65.99 66.24 67.01 67.35 67.62 67.92 67.94 68.33 68.71 69.15 69.40 70.34 70.70 71.39 71.83 72.86 73.49 73.85 74.24 74.99 75.32 75.76 75.98 76.59 76.86 77.09 77.39 78.11 78.47 78.99 79.27 79.80 81.04 81.57 81.90 82.56 83.48 84.20 84.70 85.17 86.33 86.89 87.27 87.85 88.41 88.82 89.07 89.29 89.68 90.21 90.40 90.65 90.81 91.20 91.25 91.20 91.25 91.19 91.16 91.19 91.08 91.05 91.02 90.88 90.85 90.74 90.57 90.57 90.57 90.52 90.40 90.26 90.26 90.18 89.79 89.68 89.59 89.26 89.12 88.45 88.23 87.84 87.45 86.84 86.22 85.72 85.36 84.14 83.64 83.25 82.58 82.10 80.85 80.41 79.96 79.46 78.96 78.90 78.90 78.99 79.02 79.07 79.12 79.29 79.51 80.12 80.64 81.28 81.86 83.00 83.47 83.94 84.50 84.97 85.83 86.16 86.38 86.63 87.13 87.26 87.57 87.68 88.04 88.65 88.81 88.90 89.23 89.48 89.62 89.70 89.75 89.78 89.86 89.83 89.89 89.89 89.80 89.77 89.66 89.63 89.55 89.24 89.18 89.04 88.76 88.73 88.62 88.54 88.45 88.26 88.12 87.98 87.78 87.64 87.08 86.81 86.58 86.36 86.14 85.83 85.55 85.21 84.66 83.15 82.18 80.87 79.43 77.59 72.70 69.89 66.85 63.54 56.79 52.97 48.55 44.30 41.15 35.84 33.58 31.60 29.82 28.15 25.33 24.11 23.19 22.32 20.62 19.84
32.28 33.77 35.20 38.34 39.94 41.27 42.87 45.54 46.78 48.16 50.61 51.80 52.90 53.79 55.44 56.05 56.49 57.15 57.34 57.45 57.53 57.55 57.66 57.66 57.60 57.57 57.52 57.46 57.48 57.48 57.56 57.53 57.28 57.14 57.00 56.72 56.58 56.30 56.19 55.55 54.99 54.72 54.02 53.77 53.38 53.02 52.61 52.22 52.05 51.80 51.21 50.99 50.74 50.43 50.32 50.21 50.18 50.15 50.15 50.14 50.14 50.11 50.11 50.11 50.19 50.43 50.60 50.65 50.79 50.84 50.78 50.86 50.80 50.83 50.83 50.91 51.04 51.01 51.07 51.06 51.20 51.25 51.36 51.47 51.50 51.50 51.46 51.52 51.52 51.57 51.48 51.51 51.53 51.53 51.56 51.53 51.55 51.55 51.71 51.91 52.24 52.70 53.14 53.42 54.27 54.44 54.66 54.82 54.98 55.09 55.12 55.14 55.20 55.17 55.08 55.05 54.88 54.85 54.74 54.40 54.24 53.88 53.54 52.82 52.40 52.07 51.65 50.79 50.48 49.93 49.29 48.76 48.12 47.82 47.12 46.87 46.51 45.95 45.26 44.70 44.17 43.65 42.48 42.03 41.42 40.73 39.62 38.90 38.48 37.09 36.64 36.12 35.50 34.34 33.78 33.14 32.86 31.80 31.61 31.16 30.58 29.74 29.35 28.91 28.71 28.23 28.07 27.90 27.78 27.67 27.55 27.47 27.46 27.49 27.51 27.57 26.87 26.89 26.97 27.11 27.32 27.52 27.79 28.01 28.61 28.83 29.16 29.52 30.15 30.76 31.45 31.61 32.55 32.71 33.10 33.73 34.61 35.19 35.75 36.33 37.68 38.15 38.81 40.05 40.55 40.96 41.43 42.40 42.84 43.14 43.53 44.02 44.44 44.88 44.99 45.76 46.09 46.31 46.58 47.08 47.21 46.75 46.86 47.46 47.71 47.90 48.07 48.45 48.51 48.61 48.67 48.94 49.08 49.10 49.16 49.29 49.34 49.48 49.53 49.67 49.67 49.67 49.75 49.85 49.88 49.88 49.96 50.15 50.20 50.23 50.31 50.39 50.44 50.55 50.58 50.88 50.93 50.98 51.07 51.20 51.23 51.28 51.33 51.44 51.44 51.46 51.49 50.85 50.85 50.85 50.88 50.82 50.79 50.62 50.56 50.25 50.22 50.16 50.08 50.05 50.07 50.10 50.12 50.29 50.40 50.67 51.00 52.30 52.94 53.49 54.27 55.10 55.59 56.09 56.70 57.34 58.69 59.36 60.10 60.68 62.29 63.12 63.81 64.59 65.86 66.28 66.75 67.03 67.80 68.13 68.35 68.60 69.04 68.67 69.03 69.33 70.13 70.49 70.80 71.46 72.43 72.90 73.54 73.93 74.26 74.98 75.31 75.78 76.03 76.55 76.74 76.99 77.24 77.96 78.21 78.71 79.07 80.20 80.87 81.45 81.64 82.75 83.28 83.97 84.44 84.92 86.16 86.72 87.13 87.69 88.27 88.66 88.91 89.16 89.88 90.04 90.24 90.48 90.79 90.93 91.17 91.14 91.20 91.14 91.11 91.14 91.03 91.00 90.97 90.86 90.86 90.66 90.58 90.55 90.55 90.52 90.46 90.32 90.29 90.21 89.85 89.73 89.65 89.34 88.92 88.51 88.25 87.89 87.20 86.89 86.30 85.80 85.41 84.19 83.69 83.30 82.66 81.60 80.96 80.51 80.06 79.28 79.09 78.97 78.97 79.00 78.95 79.01 79.09 79.23 79.75 80.08 80.61 81.22 82.19 82.83 83.22 83.72 84.33 85.13 85.57 85.96 86.18 86.71 86.90 87.04 87.35 87.48 88.18 88.45 88.62 88.76 89.14 89.23 89.45 89.53 89.59 89.64 89.69 89.69 89.75 89.75 89.66 89.66 89.58 89.49 89.32 89.18 89.18 89.04 88.76 88.73 88.65 88.59 88.34 88.26 88.23 88.14 87.95 87.53 87.28 87.03 86.83 86.38 86.30 86.05 85.71 85.49 84.43 83.73 82.81 81.59 80.11 75.99 73.43 70.65 67.64 60.98 57.59 53.61 49.26 44.86 39.24 36.56 34.33 32.35 28.92 27.50 26.08 24.88 23.87 22.11 21.27 20.46
31.49 34.50 36.01 37.50 40.76 42.09 43.69 45.18 47.55 48.85 50.12 52.13 53.21 54.07 54.98 56.30 56.71 57.04 57.48 57.56 57.70 57.67 57.75 57.75 57.75 57.69 57.66 57.60 57.66 57.65 57.71 57.68 57.51 57.40 57.23 57.12 56.81 56.56 56.42 56.14 55.44 55.14 54.75 53.97 53.58 53.19 53.02 52.36 52.22 51.94 51.32 51.16 50.88 50.79 50.57 50.48 50.45 50.45 50.42 50.42 50.39 50.41 50.38 50.49 50.49 50.68 50.87 50.95 51.14 51.23 51.28 51.33 51.30 51.30 51.24 51.27 51.40 51.29 51.34 51.28 51.36 51.42 51.42 51.58 51.58 51.58 51.55 51.52 51.57 51.62 51.59 51.65 51.67 51.64 51.72 51.75 51.77 51.77 51.93 52.15 52.43 52.90 53.25 53.58 53.86 54.60 54.82 54.96 55.04 55.23 55.26 55.31 55.39 55.39 55.28 55.30 55.08 55.02 54.91 54.71 54.26 53.90 53.62 53.23 52.31 51.93 51.56 50.73 50.45 49.89 49.59 48.89 48.28 47.92 47.64 47.06 46.61 46.03 45.72 44.86 44.50 43.97 42.77 42.33 41.83 41.13 40.18 39.46 38.82 38.35 37.37 36.87 36.29 35.48 34.48 33.92 33.62 32.61 32.42 31.97 31.41 30.55 30.19 29.74 29.54 29.07 28.90 28.73 28.61 28.47 28.39 28.33 28.32 28.32 28.34 28.40 28.39 28.50 27.75 27.91 28.07 28.26 28.51 28.76 29.36 29.55 29.88 30.16 30.79 31.34 31.95 32.14 33.08 33.30 33.63 34.21 35.26 35.87 36.45 36.94 38.33 38.96 39.49 40.09 41.34 41.83 42.30 43.19 43.66 43.96 44.29 44.87 45.23 45.64 45.75 46.55 46.88 47.10 47.38 47.87 48.01 48.40 48.53 48.34 48.59 48.78 48.92 49.30 49.36 49.47 49.52 49.79 49.93 49.96 50.01 50.12 50.17 50.33 50.39 50.52 50.52 50.52 50.60 50.71 50.73 50.73 50.81 51.00 51.05 51.08 51.11 51.19 51.27 51.32 51.35 51.68 51.73 51.78 51.86 51.97 52.00 52.05 52.10 52.21 52.21 52.21 52.23 52.26 52.25 51.54 51.56 51.50 51.42 51.30 51.28 50.97 50.96 50.88 50.79 50.79 50.81 50.84 50.87 51.00 51.11 51.33 51.58 52.74 53.38 53.96 54.68 55.62 56.23 56.70 57.31 58.83 59.39 60.05 60.83 62.07 62.91 63.71 64.43 65.87 66.45 66.81 67.31 67.70 68.36 68.67 68.97 69.19 69.50 69.77 70.10 69.79 70.62 70.89 71.23 71.78 72.72 73.16 73.77 74.05 74.94 75.10 75.41 75.88 76.29 76.60 76.79 77.04 77.76 78.01 78.28 78.75 79.06 80.11 80.72 81.25 81.47 82.41 82.83 83.52 83.97 85.10 85.77 86.27 86.77 87.82 87.99 88.41 88.68 89.32 89.65 89.82 90.01 90.18 90.46 90.57 90.62 90.98 91.01 91.01 90.98 91.00 90.86 90.86 90.86 90.78 90.72 90.61 90.52 90.52 90.52 90.55 90.43 90.29 90.29 89.96 89.87 89.79 89.62 89.15 88.92 88.50 88.17 87.33 87.00 86.69 86.19 85.72 84.79 84.13 83.62 83.23 82.17 81.53 80.92 80.47 79.58 79.30 79.13 79.05 78.99 79.01 78.98 79.08 79.16 79.60 79.80 80.13 80.68 81.79 82.21 82.85 83.24 83.68 84.74 85.07 85.51 85.90 86.29 86.48 86.65 86.79 87.12 87.59 87.90 88.17 88.37 88.75 88.86 88.92 89.11 89.28 89.33 89.36 89.41 89.44 89.55 89.49 89.49 89.38 89.29 89.38 89.15 89.07 89.07 88.65 88.70 88.67 88.56 88.47 88.37 88.31 88.28 88.17 87.83 87.58 87.38 87.22 86.80 86.57 86.46 86.21 85.90 85.29 84.70 84.00 83.14 80.49 78.79 76.53 74.00 71.21 64.91 61.48 58.14 54.26 45.65 42.45 39.91 37.29 35.08 31.37 29.70 28.27 26.82 24.53 23.58 22.68 21.82 20.98
32.83 33.71 36.83 38.35 40.03 42.96 44.51 46.00 47.16 49.59 50.81 51.80 53.76 54.62 55.42 56.08 56.99 57.27 57.38 57.62 57.76 57.79 57.70 57.75 57.75 57.72 57.69 57.69 57.74 57.71 57.79 57.76 57.74 57.59 57.56 57.48 57.34 56.95 56.81 56.47 55.83 55.53 55.14 54.77 53.97 53.38 53.19 52.91 52.27 52.05 51.66 51.24 51.01 50.93 50.79 50.59 50.56 50.59 50.56 50.55 50.52 50.55 50.55 50.66 50.65 50.71 51.04 51.14 51.20 51.44 51.52 51.61 51.63 51.63 51.65 51.60 51.65 51.51 51.45 51.45 51.33 51.39 51.41 51.44 51.57 51.60 51.65 51.81 51.87 51.89 51.79 51.86 51.92 51.94 51.94 52.02 52.05 52.05 52.21 52.46 52.68 52.78 53.42 53.78 54.08 54.55 54.96 55.13 55.18 55.34 55.37 55.42 55.45 55.50 55.41 55.44 55.35 55.10 54.93 54.71 54.29 53.93 53.59 53.20 52.17 51.81 51.34 50.89 50.30 49.89 49.63 49.35 48.38 48.18 47.85 47.08 46.71 46.10 45.91 44.99 44.65 44.09 43.54 42.48 42.01 41.34 40.36 39.64 39.25 38.64 37.74 37.24 36.52 35.88 35.12 34.46 34.15 33.62 33.00 32.56 31.94 31.58 30.77 30.38 30.18 29.70 29.62 29.45 29.34 29.27 29.19 29.13 29.13 29.12 29.15 29.20 29.20 29.30 29.41 29.49 28.77 29.10 29.34 29.56 30.14 30.33 30.58 30.83 31.38 31.98 32.45 32.70 33.70 33.91 34.22 34.77 35.74 36.40 36.95 37.51 38.89 39.53 40.19 40.85 42.07 42.62 43.01 43.42 44.34 44.67 45.05 45.63 45.96 46.46 46.57 47.40 47.70 47.95 48.25 48.72 48.83 49.19 49.33 49.93 50.18 49.61 49.74 50.13 50.21 50.29 50.34 50.56 50.67 50.70 50.75 50.83 50.94 51.08 51.13 51.32 51.32 51.32 51.40 51.50 51.53 51.53 51.64 51.80 51.85 51.91 51.96 52.04 52.12 52.15 52.17 52.50 52.55 52.58 52.69 52.82 52.85 52.90 52.96 53.06 53.06 53.03 53.06 53.11 53.11 53.08 52.25 52.19 52.16 52.05 51.99 51.68 51.62 51.56 51.42 51.42 51.45 51.47 51.50 51.60 51.71 51.88 52.10 53.09 53.65 54.26 55.01 56.09 56.70 57.20 57.72 59.27 59.88 60.55 61.35 62.71 63.55 64.21 64.93 66.32 66.93 67.32 67.79 68.34 68.81 69.04 69.37 69.75 69.86 70.14 70.39 70.72 70.91 71.15 71.35 72.29 72.84 73.26 73.84 74.12 74.98 75.17 75.48 75.89 76.28 76.64 76.83 77.03 77.63 77.86 78.19 78.58 79.19 79.77 80.38 80.93 81.91 82.29 82.74 83.43 84.35 85.07 85.71 86.24 86.74 87.74 87.93 88.35 88.65 89.32 89.62 89.82 90.04 90.34 90.45 90.56 90.62 90.73 90.70 90.70 90.73 90.70 90.67 90.67 90.67 90.64 90.61 90.52 90.44 90.44 90.41 90.43 90.32 90.21 90.07 89.87 89.84 89.73 89.23 89.03 88.73 88.25 87.92 87.05 86.69 86.41 85.93 85.01 84.51 83.84 83.34 82.33 82.00 81.47 80.85 80.46 79.68 79.40 79.23 79.12 79.06 79.06 79.03 79.05 79.23 79.51 79.70 80.03 80.59 81.70 82.12 82.70 83.12 84.15 84.59 85.06 85.48 86.01 86.23 86.45 86.61 86.75 87.20 87.53 87.89 88.17 88.47 88.78 88.92 88.97 89.19 89.30 89.36 89.38 89.44 89.52 89.57 89.54 89.57 89.37 89.34 89.43 89.20 89.12 89.03 88.84 88.86 88.81 88.66 88.58 88.44 88.30 88.13 87.99 87.83 87.66 87.52 87.13 86.96 86.70 86.59 85.95 85.75 85.39 84.86 84.22 82.29 80.87 79.11 76.93 71.63 68.65 65.38 62.18 58.83 50.71 46.58 43.29 40.66 35.89 33.96 32.23 30.55 29.10 26.30 25.27 24.23 23.34 22.47 20.73
