820 795 780 768 755 742 725 712 696 682 657 646 635 622 609 596 581 564 547 540 531 523 515 508 506 505 504 502 503 504 507 508 512 512 515 516 520 522 522 523 524 524 524 523 521 521 521 520 519 518 517 516 514 513 512 510 509 508 507 506 506 504 504 505 504 505 504 504 503 505 506 505 505 504 503 504 499 498 497 500 499 498 498 498 494 493 494 496 495 496 498 499 499 499 499 501 501 504 503 507 508 509 508 508 507 508 507 508 509 508 509 510 509 510 509 509 512 513 514 513 513 514 513 513 512 511 512 511 510 509 508 503 502 500 497 497 494 492 491 486 483 482 481 479 478 476 474 471 470 470 467 468 467 466 464 464 463 462 461 463 462 460 460 459 458 457 456 455 453 451 448 447 447 444 443 441 436 435 434 433 432 431 430 427 426 422 421 419 416 415 410 406 402 401 400 398 397 395 394 393 389 388 391 393 393 392 389 390 392 393 392 395 393 393 394 393 383 382 379 376 372 371 370 368 367 365 364 363 364 363 364 361 360 359 361 358 356 355 354 352 351 351 348 347 348 345 339 336 334 331 329 326 320 317 315 312 310 307 303 298 296 293 292 293 292 289 291 292 292 293 294 294 299 300 302 304 302 302 302 298 296 295 285 284 283 284 287 289 290 290 291 292 298 300 304 308 312 316 325 328 332 337 338 342 346 349 353 354 354 357 359 368 369 370 372 373 374 378 384 389 392 392 395 399 403 404 405 404 408 412 410 411 412 414 415 417 418 421 420 421 423 422 423 423 422 423 422 423 422 425 425 427 426 425 427 426 426 429 428 429 433 434 433 434 435 437 436 438 437 436 437 437 437 438 436 433 431 428 424 419 413 407 405 399 395 385 381 375 373 367 363 358 355 351 350 346 342 335 335 332 330 329 328 324 325 326 325 324 328 330 332 334 336 338 337 336 335 332 331 332 331 331 330 329 330 333 332 333 334 335 334 333 331 330 329 328 326 325 322 319 317 314 308 303 293 285 276 270 263 253 250 250 247 246 245 243 248 252 256 261 269 283 292 299 307 314 329 334 340 348 352 351 356 355 355 360 360 371 380 396 416 443 472 551 586 623 672 705 773 798 821 840 854 864 876 882 886 887 887 878 868 854 834 813 798
817 805 792 764 751 737 723 711 694 681 669 656 633 619 606 591 576 564 556 547 531 523 515 508 506 502 501 500 501 502 506 506 510 511 513 515 514 522 523 523 524 525 524 523 522 521 521 520 519 518 517 516 515 514 513 510 509 508 507 506 506 506 504 507 506 505 506 506 505 506 507 506 507 506 504 504 503 499 499 500 499 498 499 498 497 494 494 496 495 496 498 501 501 501 500 503 503 502 503 505 506 508 506 507 506 507 506 507 509 505 506 508 508 508 507 508 512 512 512 511 512 513 512 511 512 510 510 510 509 508 507 504 501 499 496 495 493 490 489 487 482 481 480 478 477 474 473 470 469 468 467 468 467 466 464 464 463 459 458 460 459 458 457 456 455 454 453 452 451 450 447 446 445 443 442 439 436 435 433 432 431 430 429 426 425 421 420 417 416 416 413 403 401 400 399 397 396 395 393 392 388 387 389 390 391 389 386 386 388 387 386 387 385 384 385 384 383 382 381 376 372 371 370 360 359 359 358 357 358 359 359 357 355 354 357 356 353 352 351 350 349 348 347 346 347 344 338 337 334 332 329 327 324 318 317 314 312 309 305 300 298 295 294 295 292 290 291 290 291 292 292 293 296 297 299 298 296 296 296 292 290 287 285 284 283 284 287 289 285 286 288 291 298 301 305 309 314 318 328 330 334 339 340 344 348 351 353 354 355 357 358 364 365 367 368 369 371 377 380 385 389 390 392 396 401 402 402 403 407 409 409 410 411 413 415 418 419 423 422 423 425 424 426 425 424 425 424 423 422 425 425 427 428 427 430 428 429 430 429 429 433 435 437 436 439 440 439 440 439 438 439 440 439 441 438 437 435 432 428 423 417 412 409 403 396 389 383 376 374 368 365 360 358 354 353 349 345 338 337 334 332 329 328 327 326 327 326 325 331 334 333 334 336 338 337 336 335 340 339 339 339 338 338 337 337 338 338 339 340 340 340 338 337 336 335 334 332 330 327 325 322 320 314 304 298 291 283 276 264 260 258 255 253 252 250 251 255 259 263 270 283 296 305 312 321 335 343 349 354 358 359 357 361 361 360 360 364 371 380 396 415 441 503 547 581 618 661 731 764 790 814 833 847 865 871 877 879 881 885 877 868 854 839 820 793
816 803 789 773 761 748 721 709 693 680 668 655 641 631 601 586 572 560 551 544 537 528 520 505 503 502 501 500 501 501 502 506 510 511 513 517 518 520 524 523 524 525 524 523 522 521 522 520 519 518 517 516 515 514 514 513 509 508 508 507 506 508 505 508 511 510 510 511 510 511 511 512 510 509 507 506 505 501 502 502 501 500 500 499 499 498 497 500 499 499 500 501 501 501 501 503 503 502 502 505 506 507 506 506 505 506 505 505 508 507 504 507 506 507 506 507 510 510 511 510 511 511 511 510 510 509 508 507 506 505 504 502 499 496 493 492 490 487 487 486 483 480 479 476 476 473 472 471 466 465 465 465 464 463 463 461 460 459 458 460 459 458 458 456 454 453 452 451 450 449 446 445 444 442 441 440 437 435 433 432 431 430 429 427 425 421 420 419 417 416 413 404 401 400 399 397 396 395 393 392 390 389 390 390 390 388 385 384 385 384 383 382 381 380 379 378 377 373 372 369 364 362 361 360 359 358 358 357 358 353 353 353 352 350 352 353 350 349 349 345 344 345 344 343 342 340 335 335 333 330 328 325 323 318 317 315 312 310 305 300 298 295 295 295 293 292 293 292 291 292 294 294 295 296 295 294 291 292 291 285 282 280 277 276 275 278 281 283 285 286 288 291 298 301 305 309 315 319 330 330 334 340 342 346 350 353 354 355 355 358 357 361 362 365 365 366 368 375 377 381 387 387 390 396 398 402 403 404 408 410 411 412 413 415 418 420 423 427 428 427 429 428 430 429 428 429 428 427 429 428 427 429 428 427 429 428 429 430 434 437 438 441 445 444 444 445 445 446 445 444 445 446 445 446 444 444 444 439 431 430 425 419 413 406 397 392 384 379 374 370 367 364 362 358 357 353 344 342 341 338 336 333 332 331 330 332 331 338 337 338 340 341 343 345 344 343 342 340 339 339 339 338 345 344 345 345 345 346 347 348 346 345 344 343 343 342 338 337 335 332 330 326 314 312 306 298 291 278 272 268 265 263 262 258 257 258 264 270 275 290 296 308 317 328 344 351 359 363 365 369 367 366 367 365 364 362 366 372 381 395 415 471 503 547 581 611 688 722 756 783 807 840 851 858 864 871 874 881 881 877 868 857 823 805 795
813 801 788 772 758 743 730 717 689 674 662 649 635 627 612 598 569 557 548 541 534 525 516 509 504 502 501 500 501 501 502 506 507 511 513 517 518 520 524 524 523 525 527 526 525 524 525 524 523 521 520 520 519 518 517 516 514 512 511 510 509 511 510 513 516 515 515 516 515 514 515 512 511 510 507 506 507 503 504 504 503 501 502 501 500 499 499 499 500 501 502 501 502 501 501 501 504 503 502 505 506 507 506 505 505 503 503 504 506 505 503 504 505 506 505 505 509 508 509 509 509 510 509 508 509 508 507 505 505 504 503 500 498 497 492 491 489 486 485 484 482 479 478 475 474 472 471 470 468 464 463 464 463 462 461 460 459 458 457 459 458 457 456 455 454 453 452 451 450 449 445 442 441 439 438 437 434 434 432 431 430 429 428 427 426 421 421 420 419 418 412 410 402 401 398 396 395 394 393 391 390 389 388 389 388 387 384 383 382 381 380 380 379 374 373 372 371 368 368 364 360 358 355 354 353 352 352 351 352 353 353 353 352 350 352 347 346 345 344 342 340 341 340 339 338 335 332 333 330 328 325 324 323 318 317 315 312 308 306 302 300 299 298 299 296 295 294 293 292 293 295 292 294 291 290 290 287 286 285 282 279 277 274 273 272 276 278 280 282 285 287 291 299 301 305 309 315 319 330 330 335 340 343 347 351 354 355 355 356 357 356 359 360 360 361 362 364 370 373 377 382 383 387 392 396 398 400 401 405 411 414 415 415 418 422 426 427 431 432 433 435 434 436 435 434 434 434 433 434 433 432 435 434 433 435 434 434 435 434 437 438 441 445 444 447 448 448 448 447 447 447 448 448 449 446 447 448 444 435 433 427 420 416 402 398 392 387 381 377 370 369 367 366 362 361 353 350 348 347 344 342 337 337 337 337 340 339 345 344 345 347 348 353 352 351 350 349 347 347 346 347 346 345 344 346 345 345 350 351 354 352 351 350 349 348 345 344 343 341 338 336 327 322 319 312 304 291 283 278 273 271 268 265 264 263 264 271 277 290 297 308 319 329 349 356 364 369 373 376 377 375 372 370 367 366 365 367 373 380 413 439 467 500 540 574 653 688 722 756 783 816 830 842 851 857 865 871 875 876 874 866 843 824 807 794
827 809 784 767 754 739 726 712 698 684 657 646 632 624 609 594 579 564 555 538 531 522 515 508 502 501 500 499 499 500 501 506 507 510 511 517 518 520 524 524 523 524 525 526 525 524 525 524 523 522 522 520 519 518 517 516 514 513 512 510 509 511 514 514 517 516 515 518 515 514 515 511 510 509 508 505 506 501 502 503 502 501 500 500 499 498 497 498 499 501 501 500 500 499 500 499 503 502 500 504 505 506 505 504 504 504 503 504 506 505 503 504 505 503 503 504 505 505 508 508 508 509 508 507 508 507 506 505 503 502 502 499 497 496 493 490 487 485 484 483 481 478 477 474 473 471 470 469 466 464 462 461 460 459 458 458 457 455 454 456 455 454 454 453 451 450 449 448 447 446 445 442 441 439 438 437 434 431 429 428 427 426 425 425 424 419 418 417 416 415 411 408 400 399 397 394 394 393 392 390 389 388 387 388 387 386 383 382 381 380 379 378 377 372 372 369 368 366 363 361 356 355 352 351 349 348 347 347 348 348 349 348 347 345 346 347 346 345 344 342 340 338 337 336 335 333 329 330 329 327 324 323 322 319 316 315 313 309 305 302 300 300 299 299 297 296 293 292 291 290 292 290 289 285 284 284 281 280 279 276 273 271 268 267 267 271 273 276 277 279 281 285 295 299 302 308 314 319 330 331 335 340 343 347 351 354 355 356 357 357 357 358 359 359 360 359 362 368 370 374 378 379 384 389 393 397 399 400 404 411 413 414 414 418 422 427 428 432 433 433 436 436 436 435 435 437 436 434 437 436 435 437 436 438 437 436 437 438 437 441 441 443 445 446 447 447 448 448 447 449 450 450 450 451 450 451 452 444 439 437 431 424 420 406 401 397 391 385 381 374 373 369 368 366 359 357 354 352 352 350 345 344 345 344 345 345 347 351 350 351 353 354 357 356 355 354 354 350 351 350 351 350 349 349 350 349 350 350 351 353 352 351 356 355 353 351 350 349 346 344 339 335 329 326 319 306 302 294 287 283 277 273 271 270 269 271 284 292 299 307 319 329 351 360 367 375 380 383 384 382 379 377 373 368 367 364 367 372 394 413 438 464 494 533 601 641 676 710 744 795 816 830 842 851 858 864 868 872 873 870 854 843 826 807 788
826 808 796 781 751 736 721 708 693 678 663 651 628 619 604 591 576 563 554 544 537 521 514 508 502 502 501 500 499 500 501 508 508 512 514 518 520 523 524 525 524 524 525 527 526 524 525 524 523 522 522 521 520 518 517 518 515 515 515 514 513 515 517 518 518 517 517 517 518 515 515 511 510 509 508 506 505 503 502 503 504 503 502 501 499 500 499 500 500 501 502 502 501 500 500 499 503 502 502 503 504 504 503 502 503 502 501 503 505 504 502 502 505 504 503 504 505 505 506 507 506 505 505 504 505 504 503 502 501 500 499 498 495 494 492 490 486 482 481 480 478 475 473 472 470 468 467 466 463 461 460 458 457 457 456 455 454 453 453 452 453 452 451 450 449 447 446 445 444 444 443 440 437 434 435 434 432 431 430 428 427 426 425 422 421 420 415 414 413 414 410 407 402 398 396 393 392 391 391 390 386 385 385 385 384 383 383 379 378 377 376 376 375 368 367 366 365 363 360 358 353 352 350 349 346 345 344 343 343 344 345 345 344 344 343 344 343 342 340 339 337 338 337 336 335 333 332 330 329 327 323 322 321 318 315 314 312 308 304 301 301 300 299 300 297 296 291 290 290 289 288 285 284 281 280 279 277 276 275 271 269 266 264 263 264 267 269 271 272 276 278 284 294 297 301 307 313 318 331 333 337 343 343 347 352 354 355 356 357 357 357 357 358 358 359 358 363 365 368 372 376 376 382 388 392 396 399 399 403 411 412 414 417 421 426 431 432 434 437 437 441 441 442 441 440 443 442 440 442 441 441 443 442 444 443 442 443 443 442 446 446 449 449 450 451 451 450 451 450 449 451 450 450 451 456 457 453 449 445 441 435 428 416 412 406 401 398 392 382 380 377 373 372 370 365 364 362 359 360 355 352 351 352 351 352 354 354 357 356 357 359 362 363 362 359 359 358 354 355 354 355 354 352 353 356 355 355 356 358 359 358 357 356 354 353 351 350 357 354 349 346 344 338 336 321 317 311 303 297 292 282 281 278 277 276 286 294 301 308 317 330 349 360 371 378 385 394 393 390 388 385 379 371 370 369 367 368 379 393 412 436 461 492 561 597 632 666 700 761 787 808 822 834 851 858 864 868 872 873 863 854 843 826 805 759
823 805 791 777 762 748 717 704 689 674 659 647 638 627 615 586 573 563 554 544 537 530 521 510 504 503 502 501 500 503 503 511 512 515 519 523 525 524 525 526 525 526 527 529 528 527 526 526 525 524 523 522 522 519 518 518 515 515 515 518 517 516 518 519 519 518 517 516 517 514 514 510 509 508 507 505 504 504 503 502 502 502 502 501 500 501 499 500 499 500 500 501 500 498 499 498 502 501 500 499 502 503 502 501 502 501 500 499 502 501 499 499 500 499 500 501 504 504 506 507 506 505 506 504 501 500 499 498 497 496 494 493 493 492 489 487 484 483 478 478 475 473 470 469 468 465 464 463 461 458 457 456 455 454 453 452 451 450 449 449 450 449 448 447 446 445 443 443 442 441 440 439 437 432 432 431 429 428 427 426 424 424 423 422 421 420 416 414 413 413 409 406 402 400 396 394 393 392 389 389 387 384 383 384 383 382 381 378 377 376 375 374 373 369 366 365 363 360 358 355 353 349 347 346 343 342 342 340 339 340 340 341 340 341 341 341 342 341 339 338 336 337 336 335 334 333 332 330 329 327 323 322 321 315 314 313 311 310 304 302 301 300 300 300 298 297 292 289 288 286 285 284 282 278 277 276 274 273 272 269 266 264 261 260 261 264 266 269 269 273 276 281 291 296 302 308 313 319 331 334 338 343 346 350 353 355 356 356 357 358 358 357 358 358 359 358 362 364 367 371 375 375 385 387 391 395 398 402 411 415 416 420 422 426 431 437 437 441 444 445 448 448 449 448 447 450 448 447 448 447 446 449 447 449 450 449 450 451 451 453 454 454 455 456 457 457 456 456 456 455 456 455 456 457 456 457 453 449 445 447 441 434 424 418 412 406 404 392 390 386 383 379 377 375 372 371 369 366 367 362 360 359 360 359 360 361 362 364 363 364 367 370 370 369 367 366 363 362 363 362 362 361 360 361 363 362 363 364 365 366 365 364 363 362 361 358 357 357 351 349 346 351 347 345 330 324 318 311 307 295 289 288 286 285 286 294 301 309 316 325 346 357 369 380 387 397 400 399 396 394 390 380 375 375 374 371 374 380 392 410 434 488 524 553 588 622 656 724 751 777 796 813 836 844 853 859 863 869 867 863 854 843 826 772 740
823 802 787 772 757 744 726 709 696 666 651 641 634 622 610 597 584 563 556 547 540 530 521 517 511 505 506 505 504 504 505 507 514 520 521 526 527 526 527 527 528 529 530 531 531 530 530 530 529 528 527 526 525 522 521 521 521 518 517 518 517 516 518 520 519 518 515 515 515 513 512 513 508 507 506 503 502 503 501 501 500 499 499 498 498 498 497 497 496 497 498 498 497 498 497 497 501 500 499 498 500 501 501 500 501 500 499 498 499 501 497 498 499 498 499 499 500 501 502 503 502 501 502 501 501 500 499 498 497 496 489 488 487 486 485 482 480 479 475 472 469 467 466 465 464 463 460 459 456 454 453 452 451 449 448 448 447 447 446 447 449 448 447 446 445 444 443 441 441 440 439 438 435 433 431 430 428 427 426 425 424 422 421 421 420 419 415 413 412 413 409 406 402 400 393 393 392 389 387 386 385 381 381 381 380 379 379 376 376 375 374 373 372 368 365 364 361 359 356 352 350 346 344 343 341 340 339 338 335 335 336 337 336 336 336 337 338 337 334 333 332 332 331 331 330 330 329 329 328 326 323 321 320 317 314 313 311 310 300 297 297 296 295 296 293 293 288 285 283 282 281 280 277 274 273 272 270 269 268 264 262 259 258 258 258 261 264 266 267 269 273 283 288 295 301 308 314 319 330 334 338 344 346 350 353 356 356 357 358 359 358 358 358 359 361 361 362 364 367 371 375 374 384 386 390 394 398 402 412 416 418 422 425 427 434 439 440 444 446 445 449 449 452 451 450 451 451 450 452 451 450 449 449 450 449 448 449 452 453 454 456 455 456 455 462 461 462 462 461 461 462 461 462 463 462 463 461 457 451 447 441 431 424 418 415 409 406 395 392 388 386 382 381 381 378 377 375 372 370 368 367 368 367 366 368 368 369 372 371 372 373 375 375 374 373 371 370 369 370 369 368 367 367 368 367 368 370 370 369 372 373 372 370 369 368 366 365 362 359 356 354 351 347 337 330 324 324 318 310 303 297 296 293 292 294 301 309 316 323 345 354 365 377 386 401 403 404 403 401 398 388 384 380 377 375 371 375 381 394 411 456 483 517 546 580 613 681 712 739 765 784 815 828 835 846 854 864 866 864 859 852 822 801 772 740
840 820 802 772 757 744 726 707 693 677 662 637 630 618 607 594 581 570 562 546 539 528 520 516 510 504 503 505 504 505 505 509 513 517 519 525 526 525 525 526 527 526 528 529 530 529 528 529 528 527 526 524 524 521 520 519 520 517 516 516 515 515 517 519 518 517 515 515 515 513 512 513 507 506 505 502 501 502 499 500 498 497 498 497 496 497 496 495 496 496 496 497 496 497 496 497 499 499 498 497 499 500 500 499 499 498 498 497 497 500 499 497 498 497 497 498 499 498 499 500 499 498 499 498 497 494 493 492 491 490 489 488 487 486 485 482 477 476 474 473 468 465 465 464 463 462 459 458 455 453 452 451 450 449 447 446 445 446 445 446 447 445 444 443 442 441 440 440 438 435 434 433 433 430 428 429 427 426 425 424 423 421 420 419 418 418 414 413 411 412 407 405 401 398 396 393 392 389 387 386 384 383 379 380 379 378 377 375 375 374 373 370 370 366 363 361 359 356 354 350 347 344 341 340 338 337 336 335 332 332 332 332 331 332 332 333 333 332 330 329 328 328 327 326 325 326 325 325 324 322 317 317 314 312 310 309 306 305 300 297 297 296 295 292 289 288 283 281 278 277 276 276 273 271 270 269 267 264 263 260 258 255 254 253 254 257 259 262 266 268 274 283 289 296 301 309 314 320 329 335 339 345 347 351 354 356 357 356 357 358 356 355 356 356 359 358 359 362 364 368 374 374 384 386 390 394 401 405 416 418 422 426 430 431 439 445 446 450 452 451 453 453 454 455 454 455 455 454 456 455 454 453 453 454 453 452 453 456 457 458 460 459 462 463 466 465 464 465 464 464 465 464 465 465 464 466 465 461 455 449 435 432 425 419 415 409 401 395 397 394 392 389 389 388 386 385 384 382 380 377 376 377 376 376 377 378 378 379 378 380 380 381 380 380 378 377 376 375 374 373 373 372 372 372 375 373 374 376 375 378 379 377 376 375 374 372 370 367 365 362 358 356 349 342 336 330 324 314 310 303 304 303 300 299 302 309 316 324 340 352 362 372 383 399 405 408 408 408 405 398 392 388 384 382 377 376 378 384 396 428 452 479 511 540 608 640 676 705 731 756 793 810 823 830 841 854 860 863 860 858 840 822 803 771 735
839 819 801 786 770 740 722 707 693 677 662 647 637 618 605 591 579 571 562 553 546 532 523 519 513 509 508 507 507 505 507 511 513 517 519 521 525 523 524 525 525 524 527 527 528 528 527 528 527 526 525 524 524 524 524 521 520 518 517 516 516 515 515 518 517 516 515 514 514 511 511 511 507 506 505 502 501 502 498 497 496 497 496 496 495 496 495 494 495 494 495 496 495 496 495 495 494 497 496 496 498 499 499 498 497 496 495 494 495 497 496 493 493 492 495 494 494 495 496 496 495 494 495 494 493 492 488 488 487 486 485 484 483 482 480 480 477 476 474 473 470 465 463 462 462 461 458 457 454 451 451 450 449 448 447 445 444 445 444 445 446 442 441 439 438 437 436 435 433 431 430 429 428 426 425 425 424 423 420 420 419 418 416 415 414 413 411 410 409 407 403 401 398 397 393 391 390 390 385 385 384 383 379 380 379 378 376 374 373 373 372 369 368 364 363 360 358 355 353 349 346 344 340 339 337 336 335 334 331 330 329 330 327 328 325 327 327 327 324 323 322 322 321 320 319 320 319 318 318 316 313 312 310 309 305 305 302 301 295 293 293 292 291 292 289 288 286 281 278 273 272 271 269 267 266 265 263 260 259 256 255 252 251 251 251 256 258 261 266 269 274 284 289 296 302 309 315 324 330 336 340 344 346 354 356 359 358 357 358 358 357 356 356 357 360 359 360 361 363 366 371 372 383 386 390 395 401 410 416 418 422 432 436 443 445 451 451 454 456 459 458 458 458 459 460 460 460 460 462 461 460 458 459 460 458 457 457 459 460 460 463 462 466 469 472 471 470 469 467 468 469 468 469 469 469 469 468 464 458 452 440 436 429 423 421 411 405 399 397 394 392 388 389 396 393 392 391 391 389 386 385 386 383 385 386 387 387 388 386 386 386 387 386 385 384 383 382 381 380 380 379 380 379 380 378 379 380 382 381 382 382 381 380 379 379 377 376 373 371 368 366 358 355 348 343 338 326 322 318 310 304 301 300 299 311 317 324 339 348 360 368 378 398 404 410 412 413 409 407 403 397 393 389 384 381 380 381 387 408 426 450 475 506 567 601 632 668 697 748 769 786 804 818 827 845 853 858 861 859 854 843 825 803 772 671
839 819 801 785 768 752 737 702 687 671 657 643 632 625 613 591 579 571 562 553 546 541 532 521 517 513 512 511 510 509 508 513 515 515 518 520 524 523 522 523 524 523 525 526 527 527 526 528 527 528 527 526 525 526 524 521 519 516 516 515 515 514 514 516 516 515 514 513 512 510 509 510 506 505 504 503 501 501 498 497 496 497 496 497 492 493 492 491 492 491 492 494 494 494 493 494 493 497 496 494 497 497 498 497 496 495 492 491 493 496 495 492 493 491 493 493 493 494 495 495 494 493 493 492 492 491 488 487 486 485 484 483 482 479 479 477 476 475 473 472 469 467 463 462 462 461 458 457 454 447 446 445 444 444 443 441 440 439 438 439 438 439 437 434 434 433 432 431 430 427 426 425 424 421 422 423 421 420 419 418 417 417 416 414 413 412 410 409 408 404 402 400 397 396 392 391 388 387 386 385 384 382 379 379 378 377 376 374 373 373 372 368 367 365 364 361 358 356 353 349 346 342 339 338 336 333 332 331 327 325 325 325 323 323 321 321 321 321 318 319 318 318 317 316 315 316 315 314 314 315 312 311 309 308 304 302 299 298 294 292 290 287 287 287 285 284 281 276 274 273 272 271 269 267 262 261 258 256 255 253 252 250 249 249 250 255 257 261 267 269 275 284 290 297 303 310 316 323 329 335 339 343 345 353 357 358 357 356 357 357 357 358 357 360 362 362 362 362 362 365 370 377 381 386 392 399 405 414 420 424 428 432 436 443 445 451 452 453 455 459 458 457 459 460 461 461 463 464 466 465 464 463 463 464 462 461 462 463 462 463 465 465 469 472 474 473 474 473 472 472 473 472 473 473 472 471 470 468 460 449 443 441 433 429 426 416 411 407 404 402 397 396 396 396 393 392 390 397 396 394 393 394 390 393 392 391 392 392 391 390 391 391 391 389 388 387 386 385 384 384 384 384 383 384 382 383 384 386 386 387 386 385 385 384 382 381 380 379 377 374 368 365 363 355 351 339 333 329 325 318 311 308 308 308 311 317 331 339 348 366 374 392 399 405 411 413 413 412 410 406 398 394 387 385 380 378 379 394 406 423 447 473 528 560 594 625 659 714 740 760 778 795 823 834 842 849 857 859 859 855 844 829 806 741 691
853 817 799 784 767 751 736 716 700 670 656 641 631 622 610 602 590 571 562 553 546 541 532 525 521 513 512 511 510 509 508 509 511 514 516 519 522 522 521 521 522 522 524 525 525 526 525 524 526 526 525 525 524 524 523 523 518 515 514 513 514 513 512 515 514 513 512 512 511 511 509 509 505 502 503 502 500 499 497 496 493 494 493 494 493 492 492 491 492 491 490 491 493 493 492 493 492 496 495 494 495 496 495 494 493 493 492 490 492 494 494 491 490 491 491 490 490 493 493 494 493 492 491 490 489 488 485 485 484 482 481 480 478 475 474 473 472 471 470 469 466 462 460 458 457 456 455 455 454 447 446 445 444 441 440 439 437 435 434 435 434 433 432 430 429 428 427 427 426 425 420 419 418 417 416 417 418 417 417 416 415 414 413 411 410 409 407 406 405 401 398 397 394 392 391 388 388 386 385 384 383 381 380 378 377 376 375 373 372 373 371 368 367 365 364 361 357 355 352 348 345 341 340 337 335 332 331 329 324 323 322 323 318 319 318 316 317 316 314 313 314 313 313 312 311 311 311 310 310 310 309 308 306 303 300 298 295 294 290 287 286 283 282 281 279 278 275 270 268 267 266 265 264 263 262 261 258 256 252 250 250 247 248 248 249 254 256 260 266 268 272 282 287 295 300 307 313 321 327 332 336 340 342 349 353 355 354 353 354 352 353 354 353 355 358 358 360 359 360 362 368 374 380 385 393 400 406 417 423 427 431 435 439 443 446 451 452 453 455 459 462 463 463 464 466 465 464 465 465 465 464 464 464 465 463 462 463 462 462 462 465 466 470 473 475 474 475 475 474 475 476 475 476 474 473 472 470 469 461 450 444 443 436 432 423 419 413 412 410 407 402 402 402 401 399 397 396 397 396 394 393 391 398 400 399 398 398 398 397 396 397 397 396 395 394 391 391 387 386 387 386 385 384 384 384 384 385 386 386 387 386 386 386 384 383 382 381 380 380 375 370 368 365 361 351 347 341 337 333 325 317 316 315 316 318 332 339 346 355 366 383 392 400 406 410 413 413 412 411 407 399 391 388 386 383 381 389 396 409 425 444 497 523 553 587 618 680 705 731 752 771 804 817 831 838 846 856 857 858 855 846 830 782 751 709
850 834 814 794 763 745 730 712 695 682 665 652 628 618 606 597 585 577 568 550 543 538 529 523 519 515 513 511 510 509 508 509 511 514 514 519 521 520 519 520 521 521 523 523 524 525 524 523 525 524 524 523 522 523 522 521 519 516 513 512 513 510 509 510 512 511 510 509 508 509 506 505 502 501 502 499 497 497 496 496 492 493 492 493 492 491 492 490 490 490 490 491 493 492 492 493 491 493 492 491 490 492 492 493 492 491 490 490 489 493 492 490 489 488 487 488 488 490 489 488 487 485 484 484 483 482 480 479 478 477 475 474 473 471 468 467 467 465 464 463 462 460 456 455 453 452 451 450 449 447 443 443 442 441 440 439 438 435 434 429 428 427 426 425 425 424 423 422 423 422 420 416 414 413 412 413 412 412 411 410 409 408 407 406 404 404 401 399 398 398 397 392 392 389 387 386 385 383 382 381 380 378 377 376 374 373 373 372 371 371 370 367 366 364 363 360 360 355 352 348 345 340 339 336 333 331 330 328 323 322 321 320 316 315 314 315 314 314 311 310 311 310 310 309 306 307 306 305 305 306 303 303 302 299 296 293 292 291 287 285 286 279 278 277 275 274 271 266 264 263 262 261 260 258 257 255 254 251 252 250 250 247 248 244 245 250 252 258 260 266 268 279 283 292 298 305 310 318 324 330 334 338 338 346 350 353 352 354 355 353 354 355 355 356 357 357 359 358 359 363 367 373 379 386 394 401 406 418 425 429 435 437 442 446 450 454 455 455 460 463 462 463 463 464 466 469 468 469 470 469 467 466 467 468 465 465 466 465 464 465 467 472 473 475 478 477 478 478 478 479 480 479 477 476 476 475 472 468 458 454 447 446 438 434 429 425 421 420 417 412 410 409 410 409 406 405 404 405 404 401 401 399 398 400 399 398 408 407 406 405 406 406 403 401 400 397 392 391 391 390 389 388 388 387 385 385 386 388 388 388 388 388 387 385 384 383 382 381 380 377 375 372 370 363 357 353 349 343 340 330 326 325 325 324 332 338 345 352 362 376 385 393 400 406 413 413 412 411 410 408 396 392 389 387 384 388 392 399 412 426 471 495 517 548 580 644 671 697 724 748 785 801 813 828 835 850 856 858 859 855 834 816 790 761 727
849 833 815 795 778 760 729 711 694 679 662 649 637 627 605 596 584 575 567 558 549 536 529 524 520 516 513 512 511 509 509 509 511 514 514 517 519 520 518 519 519 520 519 521 523 524 523 522 524 523 524 523 521 522 521 520 518 515 513 511 512 509 507 507 508 507 506 504 503 504 503 502 503 501 500 498 495 496 495 494 493 492 491 491 491 490 490 489 489 488 487 488 492 491 492 491 491 493 492 491 490 490 489 492 491 490 489 488 488 490 491 489 488 487 486 487 486 486 485 484 483 481 480 479 479 478 475 474 473 473 472 470 469 468 466 465 461 460 458 457 456 454 451 450 449 448 445 444 443 441 438 437 436 435 434 433 432 433 428 429 428 427 426 425 421 420 420 420 419 419 417 413 411 410 409 410 409 410 408 407 406 405 404 403 403 401 400 397 397 397 396 391 389 388 386 385 384 383 381 380 379 377 376 375 373 372 371 371 370 370 369 366 365 364 362 359 358 355 353 348 344 340 339 336 333 331 329 326 322 320 318 317 313 312 310 310 312 313 310 309 310 309 309 308 305 306 305 304 304 305 302 301 301 298 297 292 291 290 286 284 283 276 274 273 270 268 265 260 258 257 256 255 254 252 251 251 250 247 248 244 244 243 243 244 245 250 252 258 256 261 264 276 280 286 292 299 306 314 320 325 329 333 334 344 346 350 351 355 356 354 355 355 356 357 356 356 358 359 360 364 369 376 383 390 398 407 418 425 431 435 440 443 448 452 456 458 459 458 461 464 466 467 468 470 470 469 468 469 470 474 471 470 471 472 469 469 469 468 467 468 470 475 476 478 480 480 479 480 479 480 481 480 478 478 477 476 472 465 462 458 451 450 443 438 435 431 427 426 421 418 416 415 417 417 415 414 413 412 413 411 410 408 409 409 410 409 408 407 406 405 413 412 409 407 406 403 398 396 395 392 392 393 392 390 389 390 391 392 391 390 391 390 389 388 387 386 387 383 382 382 379 377 370 367 363 359 355 351 342 341 337 336 336 335 341 347 354 360 375 381 388 394 401 411 414 413 412 411 408 402 399 395 391 388 388 391 395 402 415 448 472 494 517 546 608 638 664 690 717 764 782 797 810 824 843 850 858 860 861 853 840 826 802 778 711
848 832 814 794 777 759 743 726 691 675 658 645 633 623 612 600 581 573 564 555 546 541 535 525 521 517 515 514 513 512 511 511 513 516 516 517 518 520 519 519 519 520 519 521 521 520 521 521 523 522 523 522 521 520 520 519 516 514 511 510 510 506 504 503 504 503 502 501 499 500 499 500 500 498 497 497 494 495 494 495 494 491 492 492 491 490 491 490 489 488 486 487 491 490 491 490 492 493 493 492 491 490 489 491 491 490 489 487 486 489 491 488 487 486 485 484 483 482 482 481 480 478 477 476 475 473 471 470 469 470 469 468 466 465 464 464 460 459 458 454 453 451 450 449 448 447 444 443 442 440 436 435 433 432 431 430 429 430 428 424 423 423 422 421 421 421 420 420 419 413 411 408 407 406 405 406 405 405 405 403 402 401 400 399 398 397 396 395 395 396 395 391 388 387 384 384 383 382 380 379 378 376 375 374 373 371 370 369 369 369 368 365 364 363 361 358 357 354 351 349 345 341 340 337 332 330 329 326 322 320 318 314 310 308 307 308 309 310 307 306 306 306 308 307 304 303 304 302 302 302 301 300 296 294 293 290 289 288 282 281 280 274 271 269 266 264 261 256 253 253 252 249 248 246 246 245 244 243 242 239 241 242 242 243 244 247 249 253 256 261 264 276 276 282 287 293 300 310 316 321 325 329 330 340 342 346 347 351 352 351 352 353 354 354 353 353 357 358 359 363 369 377 387 394 402 411 422 431 438 442 448 452 455 458 458 461 465 465 465 469 470 471 473 475 474 473 472 473 474 474 471 470 471 473 470 470 470 469 468 469 470 474 477 477 480 479 479 480 479 480 480 479 478 477 476 475 471 464 462 458 454 451 441 439 436 435 433 430 427 424 422 421 423 423 421 420 421 420 422 419 418 417 418 419 419 418 415 414 414 413 413 412 409 413 410 405 403 399 396 394 392 393 392 389 388 389 392 393 392 391 392 391 390 389 388 387 385 384 384 383 380 377 373 370 366 363 359 353 348 348 343 342 342 342 347 353 359 370 376 382 389 395 407 411 413 412 412 410 407 403 399 395 391 387 388 392 398 405 432 447 470 491 513 570 602 631 657 683 735 757 775 791 803 830 841 850 858 860 862 854 844 834 812 768 741
861 846 811 791 775 756 738 722 702 685 652 639 627 617 606 598 589 578 561 552 543 538 534 528 524 518 517 516 515 514 513 512 511 514 515 516 516 519 518 517 518 519 518 520 521 520 522 521 523 521 521 520 520 519 519 518 515 513 509 508 507 506 502 498 499 498 497 498 497 496 495 495 496 495 494 495 494 494 493 494 493 490 491 490 490 489 490 489 488 487 486 486 490 489 489 489 491 490 491 490 490 489 488 490 491 489 488 487 486 489 491 490 486 485 484 483 482 481 482 480 479 477 476 475 474 473 470 469 468 467 466 465 464 459 459 458 455 454 452 449 448 447 446 445 444 443 440 439 438 435 433 432 430 428 427 426 425 424 422 421 421 420 419 418 417 416 416 414 413 413 411 408 408 406 402 403 402 403 402 400 399 398 397 397 396 395 395 394 393 394 394 390 387 386 383 382 382 381 380 378 377 375 374 373 372 370 369 368 368 368 367 364 362 361 358 356 355 352 349 346 342 338 337 335 330 327 326 324 320 317 315 314 310 308 307 303 305 306 303 302 303 304 304 304 302 301 302 301 301 300 299 298 294 293 292 289 288 287 281 280 278 269 267 264 262 259 257 252 249 248 247 245 244 242 241 240 240 239 238 234 237 237 238 239 240 244 247 251 255 257 261 272 276 282 287 293 296 306 311 317 321 325 326 336 340 344 343 348 351 351 351 352 353 354 353 353 357 357 358 362 373 381 391 399 406 415 426 435 441 445 450 457 458 460 461 462 466 464 466 470 471 472 474 476 475 474 473 472 472 473 471 471 472 473 470 470 470 471 472 473 474 479 479 480 483 482 482 481 480 481 481 480 479 478 477 476 470 467 463 460 458 454 447 445 442 440 437 434 433 430 428 427 429 429 427 426 427 426 426 427 426 425 426 427 426 425 423 422 421 420 419 418 415 413 408 405 403 405 400 397 396 395 394 394 393 394 395 396 395 393 394 393 392 392 391 391 388 387 386 386 383 381 379 376 372 370 363 359 354 354 351 349 350 349 353 359 367 372 377 383 391 402 406 410 410 409 407 404 404 401 399 390 386 387 388 392 398 420 435 449 468 489 539 565 595 625 652 706 730 754 772 787 817 830 841 850 858 863 865 861 852 843 813 792 771
860 845 828 810 792 755 737 719 699 683 668 651 624 614 604 593 586 577 568 560 542 537 531 527 523 520 520 518 517 516 515 514 513 512 515 516 517 517 516 516 516 517 517 519 520 519 521 520 519 522 521 520 520 519 519 517 516 511 507 505 504 503 499 498 498 497 496 497 496 495 494 494 495 494 493 494 493 490 492 492 491 489 490 489 489 489 488 487 487 486 485 484 485 488 488 487 488 489 491 490 488 488 487 489 490 489 488 486 487 488 490 489 486 485 484 483 482 480 479 478 478 476 475 474 473 472 471 468 467 466 465 464 463 461 457 455 453 452 451 448 447 444 443 442 441 440 440 435 434 431 429 426 424 423 421 420 418 417 416 415 414 414 413 412 411 410 410 406 405 406 403 401 403 404 402 403 402 403 399 398 397 396 395 394 395 394 394 393 392 392 393 389 388 385 382 381 381 380 379 377 376 374 373 372 371 370 368 367 367 367 366 365 360 360 357 355 354 351 348 345 343 337 335 332 327 325 324 321 317 315 312 310 306 305 304 303 304 306 303 302 302 303 302 302 301 300 299 298 299 295 294 294 289 289 288 284 283 282 277 276 273 265 263 260 256 253 251 246 243 242 242 239 238 236 235 235 234 233 233 232 234 235 236 238 239 243 246 251 255 258 260 271 274 278 283 289 296 306 311 317 315 319 327 330 335 339 340 344 349 350 350 355 355 356 356 355 357 360 364 368 379 387 397 404 412 426 434 441 447 452 456 461 462 464 465 466 470 468 469 471 472 473 478 477 478 477 476 475 475 476 475 476 475 476 474 473 472 471 472 475 474 480 480 481 484 484 483 482 481 482 482 481 480 479 478 477 471 468 464 463 461 451 450 447 446 444 441 440 439 436 434 433 435 435 433 432 433 434 432 433 432 431 432 433 432 432 429 428 426 426 425 424 421 416 414 411 409 405 400 397 396 400 399 398 398 399 400 399 396 394 397 396 395 394 393 393 393 392 391 392 388 387 385 384 380 373 371 366 364 363 360 359 360 359 363 369 370 374 380 386 396 398 401 405 406 404 403 401 400 399 394 390 386 388 389 399 408 420 435 449 469 509 535 561 589 616 671 699 723 747 768 797 816 832 843 852 864 866 869 870 860 842 833 817 806
859 844 827 809 791 774 756 718 698 680 665 648 635 621 601 590 582 574 566 557 548 541 528 526 522 521 520 519 518 516 515 514 514 513 515 516 516 516 515 514 515 516 516 515 518 518 520 519 518 520 519 519 518 517 518 517 516 514 511 505 500 499 496 495 493 494 493 494 493 492 491 492 493 493 492 492 492 489 491 490 490 488 487 488 488 487 487 486 485 485 484 483 483 487 487 486 487 488 492 491 490 488 487 489 490 489 488 487 486 486 489 488 485 484 484 482 481 480 479 478 479 476 474 473 472 471 470 468 466 465 464 463 462 460 457 454 451 449 448 446 445 444 440 438 437 436 435 433 429 427 426 424 421 419 418 416 412 411 410 409 408 406 406 405 404 403 402 401 398 398 398 398 401 401 400 400 399 400 399 398 397 396 395 391 392 391 392 390 391 391 392 390 390 388 385 384 383 382 381 380 378 376 375 374 373 372 371 370 369 369 369 368 363 360 358 355 354 353 351 348 345 339 337 334 332 324 323 320 316 313 311 309 305 304 302 301 302 303 300 300 302 303 302 302 298 297 296 295 296 293 292 291 287 286 285 282 281 280 274 272 269 261 258 256 252 247 245 240 239 237 236 233 232 230 231 230 229 230 231 229 231 232 235 237 238 244 246 252 256 258 261 272 274 278 284 286 294 300 306 311 315 319 327 330 330 335 336 342 345 346 350 354 356 359 358 358 362 366 370 381 385 392 403 410 418 432 439 447 451 458 462 469 469 470 471 472 472 473 473 474 475 476 479 478 479 478 477 476 476 477 476 477 476 476 475 474 475 474 475 478 477 480 480 481 484 483 482 481 480 481 481 480 479 479 478 473 470 468 463 463 460 453 451 448 448 447 445 444 445 442 440 441 441 441 439 438 439 440 438 439 438 437 437 438 437 436 435 433 433 433 432 430 427 422 420 416 413 409 402 401 401 400 399 397 399 400 401 400 395 394 396 396 395 396 397 398 397 396 395 395 394 394 391 390 385 381 378 376 373 370 369 368 369 368 372 374 373 377 383 391 392 395 397 400 401 400 399 397 396 394 392 388 383 388 394 402 411 422 436 469 488 509 535 554 609 635 663 690 715 761 781 795 814 830 852 859 864 868 872 869 866 859 850 842 834
872 844 827 805 788 772 753 734 717 679 664 646 632 619 608 598 579 570 563 554 545 538 533 527 520 519 517 516 515 514 513 512 511 510 512 513 514 513 512 512 511 511 512 511 512 513 515 515 514 516 515 516 515 513 514 513 512 510 507 503 500 499 496 495 493 489 488 490 489 488 487 488 490 492 491 491 490 488 490 488 488 487 486 486 489 488 487 486 484 485 484 483 484 486 485 485 486 487 490 490 489 488 486 488 489 488 487 486 485 485 488 487 484 483 482 482 480 479 478 477 478 477 474 473 472 471 466 463 462 461 460 459 458 456 453 452 447 446 445 443 440 440 439 435 434 433 433 430 428 424 423 422 418 414 413 412 409 407 406 405 404 403 401 399 398 397 396 395 393 393 392 394 396 397 396 396 395 396 395 394 393 391 392 391 392 391 392 390 390 390 391 389 389 387 384 383 382 381 380 379 377 375 374 373 372 371 370 369 368 368 368 367 364 359 357 354 353 352 350 347 344 338 336 333 331 323 322 319 315 312 310 308 304 303 301 300 300 302 299 299 301 300 299 299 298 297 296 295 294 290 288 287 284 283 282 277 277 276 270 267 263 255 252 250 246 242 239 234 233 231 230 227 226 225 224 223 222 224 225 223 226 226 230 234 237 243 245 251 255 257 260 273 275 277 283 285 295 298 302 307 311 314 322 324 330 335 336 342 341 343 347 351 354 356 356 357 361 365 369 382 388 395 405 411 418 433 440 448 453 459 467 470 470 471 472 471 471 472 473 473 474 475 477 476 476 476 475 475 474 475 474 475 474 475 474 474 474 473 475 477 477 477 480 481 484 483 482 481 480 481 481 480 479 478 477 472 470 467 463 462 457 451 449 446 445 444 443 444 444 444 441 443 443 443 442 442 442 443 441 441 442 442 441 442 441 440 440 436 435 436 432 429 426 422 419 417 413 406 403 403 403 403 399 398 399 400 401 399 396 395 396 397 399 399 402 402 402 401 401 400 399 398 396 394 391 389 386 384 380 378 377 374 377 375 376 377 376 378 387 389 390 391 393 397 397 397 396 393 391 391 388 386 383 388 394 401 410 421 450 467 485 506 530 582 609 635 656 685 734 756 777 795 814 843 854 861 867 873 881 877 876 874 866 858 859
871 858 843 805 788 772 753 734 716 694 678 645 631 616 606 595 586 578 562 553 544 537 531 527 525 521 517 516 516 515 512 511 510 509 509 510 511 510 509 508 506 505 506 505 504 505 506 507 506 510 511 511 511 511 510 509 508 507 504 500 496 495 492 491 490 489 488 489 490 488 486 487 487 490 489 489 489 487 489 487 487 486 487 487 488 487 486 487 486 485 485 484 484 487 486 485 484 485 489 488 488 487 486 487 488 487 486 485 484 484 487 486 483 482 481 481 480 478 477 476 475 473 470 469 468 467 466 463 462 462 460 456 455 451 450 449 447 444 443 439 436 435 434 429 429 428 427 424 422 421 416 415 414 410 409 408 405 402 401 401 400 399 398 395 394 393 392 389 387 387 386 387 389 390 390 389 391 392 391 390 389 390 389 390 391 390 391 390 390 390 391 389 388 386 385 382 381 380 379 378 377 375 375 374 371 370 369 368 367 367 367 366 363 360 357 355 352 351 349 346 343 339 336 334 331 323 322 320 314 311 309 308 303 302 300 299 300 300 298 298 298 297 297 296 295 295 294 293 294 293 288 287 280 278 277 274 271 270 266 263 261 251 248 246 243 239 236 233 229 228 226 223 222 220 219 219 218 220 221 219 220 224 229 233 236 242 244 250 254 255 259 273 276 278 284 283 294 297 301 305 307 309 319 320 326 333 334 338 341 343 347 351 351 358 357 359 365 369 373 386 392 401 411 417 424 437 445 450 456 462 470 471 473 474 475 474 474 473 472 473 474 475 476 475 474 473 473 472 473 474 473 474 474 475 474 473 474 473 474 475 476 477 479 482 483 482 482 481 480 481 481 479 478 477 476 472 469 467 462 459 455 452 450 447 446 445 444 445 446 445 443 444 445 444 443 443 444 444 442 443 443 442 443 443 442 442 440 437 437 437 433 428 427 425 422 420 413 410 408 407 408 403 400 399 400 401 402 399 396 395 396 401 406 405 408 409 408 408 407 406 405 404 401 400 398 395 394 391 388 386 385 382 381 380 381 381 379 384 386 389 390 390 392 395 397 396 395 392 391 390 388 385 385 389 395 403 412 437 449 464 483 502 551 576 604 630 656 709 734 753 776 795 830 843 855 865 871 884 890 886 885 888 881 878 881
867 854 839 822 802 786 751 731 716 694 678 663 645 615 604 594 585 577 568 561 543 534 530 526 525 521 520 518 516 515 511 510 509 508 506 507 506 505 505 504 504 503 502 501 500 501 501 502 501 504 505 505 505 505 504 504 502 502 500 496 493 493 492 488 487 486 486 486 487 488 486 487 487 490 489 488 489 486 488 487 486 487 488 487 488 487 486 487 486 485 484 484 485 487 486 485 485 485 488 487 486 486 485 484 486 486 485 484 483 482 483 485 482 481 480 479 479 478 476 473 473 472 468 467 466 464 463 461 460 459 458 456 455 451 450 448 446 443 442 438 435 434 430 429 426 425 424 422 419 418 416 412 411 409 408 407 406 400 399 398 397 396 395 394 389 389 388 385 384 383 382 382 383 384 384 387 388 389 388 387 386 389 389 389 390 389 390 389 388 389 390 388 388 386 385 382 381 381 380 379 378 376 375 374 373 373 372 371 369 370 369 368 365 363 360 359 356 355 354 352 345 341 340 338 334 330 323 320 315 312 310 309 304 303 300 299 300 299 297 297 297 296 296 295 293 292 291 289 289 288 283 283 280 278 277 274 268 267 261 259 256 251 246 245 241 238 236 234 230 229 226 224 221 219 218 218 217 217 218 220 219 221 227 231 233 240 244 248 250 254 265 273 275 277 283 282 293 296 300 304 305 307 317 317 322 329 331 335 340 341 346 349 351 358 357 359 369 373 379 392 398 405 416 421 436 443 451 456 462 468 473 473 476 475 476 477 476 474 475 476 476 478 477 478 475 474 473 474 474 475 474 473 473 474 473 472 473 475 474 475 475 476 477 480 483 482 481 480 480 481 480 479 478 477 476 469 465 463 459 455 453 450 449 448 447 446 445 446 447 443 444 445 446 445 444 444 445 444 443 444 444 443 444 444 444 444 443 440 439 440 433 431 430 428 427 424 419 417 414 413 412 407 405 402 403 404 404 401 401 400 400 404 406 405 412 413 415 414 413 412 411 408 407 406 404 401 398 395 393 390 389 388 385 386 385 384 381 383 386 388 389 389 390 392 393 392 389 387 386 385 384 379 383 387 393 402 422 435 447 462 479 523 547 573 601 626 680 704 729 753 776 814 830 843 856 865 878 886 892 894 894 895 896 895 898
866 853 838 821 801 785 768 750 715 693 677 662 643 630 615 594 585 577 567 559 551 542 529 525 524 521 521 517 516 514 510 509 508 507 505 504 503 501 500 499 500 501 500 499 497 498 499 499 498 497 500 500 499 501 500 501 498 497 496 493 491 490 489 486 486 484 484 485 486 487 486 485 486 487 488 488 489 488 486 486 485 486 486 486 485 487 487 486 485 484 483 482 482 485 484 484 483 484 485 486 485 486 485 484 485 486 484 483 482 481 482 484 484 480 479 478 478 477 476 471 470 469 467 466 463 462 460 458 457 456 455 454 453 450 449 448 446 443 443 438 432 430 429 428 426 422 421 419 416 416 413 411 409 406 405 405 404 400 396 395 394 394 393 392 387 386 385 384 383 382 381 381 382 383 383 386 388 388 387 386 385 388 388 388 389 388 389 388 387 388 389 387 387 387 386 383 381 381 380 379 379 378 378 377 376 375 374 373 371 370 370 369 365 362 359 358 355 354 354 353 348 342 341 338 334 332 327 323 317 314 310 309 304 303 301 300 301 300 297 296 296 295 295 294 290 289 289 286 287 286 281 280 277 275 272 272 268 267 261 259 252 248 243 242 240 239 236 234 230 229 227 224 222 218 218 217 216 216 217 217 216 219 223 227 229 239 239 245 249 253 264 272 274 276 282 281 293 295 299 303 304 306 314 317 321 326 329 339 341 342 346 350 352 359 359 363 369 373 379 393 399 408 418 424 439 446 453 457 463 469 472 474 477 476 475 477 476 473 474 477 476 477 476 477 475 474 472 473 474 475 474 472 473 474 473 472 473 474 473 474 473 474 477 480 481 480 479 478 478 479 478 477 476 474 474 469 465 463 454 451 449 448 447 445 445 444 443 444 445 443 444 444 445 444 444 443 444 443 443 444 443 442 443 444 444 443 442 440 439 440 433 430 430 427 426 421 420 418 415 416 413 410 408 405 406 408 407 404 403 403 404 405 407 410 412 414 418 417 416 415 413 411 410 409 407 403 401 398 396 393 388 387 385 386 385 381 381 381 384 386 388 387 388 387 388 386 384 381 380 379 378 377 381 385 391 408 419 431 444 458 491 516 540 566 594 646 673 698 724 748 793 814 830 843 856 871 878 886 892 898 905 906 906 907 907
874 861 832 817 800 784 767 749 729 714 677 662 644 627 614 603 593 575 567 559 551 542 533 525 520 519 518 515 514 514 511 506 505 504 502 501 500 499 497 497 496 496 495 495 495 494 494 495 494 493 494 493 492 493 493 493 491 490 489 488 485 484 483 481 483 484 483 484 485 485 485 484 483 486 485 487 488 487 486 487 485 486 486 486 482 484 485 483 482 481 481 480 480 480 481 482 482 483 484 486 484 485 484 483 484 485 484 482 481 480 481 482 481 478 477 476 473 472 472 471 469 466 464 463 462 461 460 457 456 455 454 452 451 449 448 447 445 442 442 441 432 430 429 428 425 422 420 418 415 415 412 410 409 405 404 402 401 397 394 393 392 391 390 389 387 385 384 383 382 381 380 380 381 382 382 385 387 386 386 385 384 387 387 387 388 387 388 387 386 387 388 386 386 386 385 384 382 381 380 379 379 378 378 377 376 376 375 374 372 371 370 369 365 363 359 357 354 353 353 352 351 341 340 338 333 331 326 322 318 315 311 310 305 304 302 301 300 299 296 295 295 293 292 291 288 287 286 283 283 282 277 276 273 271 270 266 264 261 256 253 252 248 243 241 239 238 235 234 229 228 226 223 221 217 217 216 215 216 216 218 219 221 223 227 228 236 238 243 247 252 264 271 273 276 281 280 292 294 298 302 303 305 312 314 318 324 326 336 339 339 343 347 353 358 359 363 368 374 386 393 399 408 419 425 440 447 454 458 463 471 471 474 476 477 476 478 477 476 477 479 479 478 478 478 476 475 473 474 475 474 473 471 472 473 472 471 471 474 473 474 473 474 477 478 478 478 477 475 476 477 476 475 473 471 470 464 460 457 454 451 449 448 447 445 444 443 442 443 443 442 443 444 445 443 444 443 444 443 442 444 443 442 443 444 444 443 442 441 440 437 434 432 431 428 425 422 422 421 418 418 414 411 407 405 406 406 406 404 403 403 404 405 409 411 416 417 418 417 416 419 418 416 415 414 409 408 405 403 400 395 393 392 389 389 385 383 382 383 382 387 388 387 386 385 385 382 380 379 378 377 374 373 377 381 397 404 415 428 440 470 488 511 535 561 613 637 665 691 717 769 790 811 827 843 865 871 878 886 898 906 912 911 912 915 916
870 857 845 829 796 779 763 746 728 713 693 675 641 625 611 601 590 581 573 558 549 541 532 525 521 520 518 514 512 511 510 506 505 502 499 498 497 496 496 493 491 492 491 490 491 490 488 487 487 486 486 485 485 485 487 487 488 487 488 487 486 483 482 479 482 482 481 482 484 484 483 483 482 484 485 484 487 486 485 486 485 484 484 483 482 484 485 484 481 480 480 479 479 478 481 479 480 480 481 484 483 482 482 481 481 482 481 480 479 478 478 479 478 476 475 473 472 471 470 470 469 465 463 462 461 460 459 458 455 454 453 451 450 449 447 446 444 441 441 440 434 429 428 427 425 422 421 418 414 414 411 409 408 404 403 401 400 396 393 393 391 390 389 388 386 385 383 382 381 380 379 379 380 381 381 384 386 385 385 384 383 386 386 386 386 386 387 388 387 387 388 386 387 386 385 385 384 382 381 380 379 378 379 377 376 376 375 374 377 375 374 373 371 368 367 361 358 357 357 352 352 340 339 337 332 330 326 322 318 316 312 311 310 303 301 300 299 298 297 294 295 292 291 290 285 284 283 283 282 281 274 273 271 270 269 265 261 260 255 252 250 246 242 241 239 238 235 235 230 229 227 226 223 218 217 216 216 216 217 220 221 223 224 228 229 235 238 242 246 251 263 270 272 275 280 280 291 293 297 301 302 307 311 312 318 323 326 335 338 339 344 348 352 359 361 365 371 377 388 396 401 410 419 425 440 447 454 458 462 470 471 473 476 477 477 477 476 476 476 479 479 476 475 476 474 472 471 472 473 472 471 471 472 473 472 471 471 473 472 471 472 474 475 477 476 477 476 475 475 474 474 473 469 467 466 462 459 451 450 449 448 448 446 445 444 443 442 443 443 442 443 443 444 441 442 441 442 441 441 440 439 438 439 439 440 439 438 439 439 438 435 433 432 429 426 424 423 422 419 418 414 411 407 405 406 405 406 403 402 404 405 406 410 412 421 422 422 422 421 419 418 416 418 417 412 411 408 406 401 398 396 395 392 391 387 384 383 384 384 386 384 383 382 382 381 379 376 374 372 371 369 368 372 384 393 400 411 424 451 467 484 505 530 582 606 630 660 686 740 764 787 808 840 856 865 871 879 892 898 906 912 913 918 919 920
864 852 841 827 812 795 762 745 725 710 690 672 657 640 610 600 589 580 572 563 554 536 527 523 519 518 518 517 512 511 510 506 502 500 497 494 493 492 491 489 486 485 484 483 483 483 482 481 482 481 480 480 480 481 485 486 485 484 485 484 483 481 480 478 482 483 482 483 483 486 486 485 484 484 485 484 486 485 484 485 484 483 482 482 481 483 482 483 482 481 480 479 482 481 481 480 482 481 483 484 483 482 483 483 482 483 482 481 480 478 479 480 479 476 475 475 473 472 471 470 469 468 463 463 462 461 460 459 457 455 452 451 451 450 447 445 443 440 440 439 433 429 427 426 424 421 420 419 414 414 411 409 407 406 402 400 399 395 394 393 391 391 390 389 386 385 384 383 382 381 380 381 380 380 381 383 385 384 385 383 382 386 387 386 387 387 388 388 387 387 387 387 388 387 386 387 386 386 385 384 383 382 383 381 380 380 379 378 377 375 374 379 376 374 371 366 362 360 357 353 352 341 338 336 332 329 327 322 317 317 312 310 309 302 300 299 298 297 296 293 294 291 290 289 287 282 281 278 279 277 273 272 270 269 268 264 259 258 252 250 249 245 243 242 239 239 236 235 230 229 227 226 224 219 218 217 216 217 218 221 222 224 225 229 230 236 238 242 246 252 264 271 270 274 280 282 293 296 300 302 301 306 310 311 317 322 325 333 335 339 345 349 357 360 364 370 375 381 392 400 406 413 422 433 441 448 454 458 462 470 470 473 475 476 476 477 476 475 476 477 477 474 473 474 473 470 469 470 471 470 468 469 470 470 470 470 470 473 472 471 472 473 474 475 474 475 473 472 472 471 470 468 466 463 462 458 457 449 448 447 446 445 445 445 444 443 442 443 442 441 442 441 441 439 438 439 440 438 437 436 435 434 436 435 436 435 434 434 435 436 435 433 432 428 426 423 422 422 420 419 415 412 408 406 407 406 407 405 403 405 406 407 411 420 424 425 427 426 423 422 421 419 418 414 413 412 410 407 402 400 397 395 392 390 386 384 383 381 380 383 382 381 376 377 376 375 374 371 370 369 367 367 376 382 391 398 409 433 447 463 481 502 552 577 601 627 655 710 736 761 785 824 840 856 865 871 886 892 898 906 912 915 918 921 922
871 850 838 825 809 793 778 761 724 709 689 671 656 639 622 609 586 578 569 560 551 542 534 521 517 516 515 514 511 509 507 503 502 500 497 495 488 486 485 481 479 478 479 476 476 475 476 475 476 475 475 474 474 475 479 481 480 479 479 482 481 480 479 478 481 482 481 482 482 483 485 487 487 488 487 488 487 488 486 487 486 485 484 483 483 485 485 485 484 483 483 481 482 481 481 480 479 481 482 483 482 481 484 483 483 483 482 482 481 480 479 480 479 477 476 475 474 473 472 469 468 467 465 462 461 460 459 458 456 455 451 450 450 449 446 445 442 439 439 438 432 428 427 425 423 420 419 418 416 413 410 408 407 406 403 400 398 396 395 394 393 391 390 389 387 386 385 383 382 382 381 381 381 381 383 384 386 385 386 385 385 389 388 387 388 388 388 389 388 387 388 389 390 389 388 389 390 389 391 390 389 388 389 388 386 385 384 383 382 382 380 379 376 374 371 371 363 361 356 352 351 346 337 335 331 328 326 321 317 316 310 307 306 301 299 298 297 295 294 290 289 287 286 285 283 278 277 274 273 269 268 267 266 265 264 261 256 255 250 247 248 245 244 243 240 239 237 236 231 230 227 226 224 220 219 218 217 218 219 222 222 225 226 230 230 237 238 242 246 250 263 268 268 273 279 281 294 295 301 303 302 306 310 310 314 320 323 331 333 337 343 347 355 359 363 369 375 380 393 401 407 414 423 434 442 448 453 457 467 470 470 473 475 476 476 476 475 475 475 475 476 474 473 474 470 469 468 469 470 469 468 468 469 470 469 471 470 472 471 471 472 471 472 473 472 473 471 470 469 467 466 464 462 459 457 454 451 448 448 447 446 444 445 444 443 442 442 443 442 438 439 437 438 435 434 435 436 436 435 434 433 432 434 433 434 433 432 432 433 434 433 430 429 428 425 423 422 420 419 419 414 410 404 404 405 404 405 402 403 403 406 407 415 421 425 426 427 425 422 422 421 418 417 414 413 412 410 404 402 398 395 393 389 388 384 382 382 379 377 377 377 371 371 371 371 370 370 367 366 365 363 368 374 380 387 395 417 428 442 456 474 518 545 570 592 646 672 702 728 752 801 821 837 853 864 877 885 893 898 906 913 916 918 921 919
865 855 843 819 804 789 775 758 740 720 687 668 652 635 618 603 593 581 563 554 545 538 531 522 515 510 507 506 504 503 502 500 495 492 491 489 488 487 485 481 475 472 473 470 469 469 470 469 470 469 470 469 468 471 475 475 474 475 474 477 476 476 476 475 476 480 480 481 481 482 484 487 486 487 486 487 486 487 486 486 485 484 483 482 483 482 483 484 483 482 482 481 479 480 480 479 479 481 480 483 484 484 486 485 486 486 485 484 483 482 481 482 480 478 477 476 475 474 472 470 469 466 464 462 461 459 458 457 455 454 451 449 449 448 445 444 443 438 438 437 431 427 426 424 422 419 418 417 415 413 409 407 406 405 402 401 398 396 395 396 395 394 393 392 391 390 389 388 386 386 386 387 386 387 388 387 388 387 388 389 389 391 390 389 390 389 389 390 389 388 389 389 393 392 391 392 391 390 391 390 390 390 393 392 390 389 388 387 386 386 384 383 380 376 374 371 363 361 357 353 352 348 338 336 331 327 325 324 316 315 309 306 306 303 296 296 295 292 291 289 289 286 284 283 282 277 276 273 271 268 267 266 265 264 263 260 256 255 249 246 247 244 243 242 239 238 237 237 232 231 228 227 225 220 219 218 218 219 219 222 223 226 226 230 231 238 238 242 246 249 262 268 270 274 280 282 295 296 302 304 305 306 309 310 314 319 322 330 332 336 342 345 354 360 366 372 379 389 396 404 409 417 426 437 443 449 454 458 468 469 470 472 475 475 475 476 475 474 475 475 476 473 472 473 471 469 468 467 468 466 465 466 467 468 467 467 466 467 466 465 467 466 465 466 465 467 464 463 462 460 458 457 455 452 450 446 446 443 442 441 440 439 440 439 438 439 437 438 439 438 439 437 432 430 429 430 430 430 430 429 428 431 432 431 432 431 431 430 431 432 431 428 427 426 423 423 421 420 419 418 414 406 403 404 405 404 401 400 401 401 402 407 411 417 421 424 425 425 424 423 422 419 418 415 414 414 407 404 402 397 395 388 387 386 382 380 380 377 375 375 372 369 367 368 369 369 369 367 364 363 360 364 368 374 382 400 411 422 437 453 490 512 538 563 612 638 664 693 720 772 795 816 834 850 870 878 885 893 899 912 913 916 918 920 919
858 849 837 825 815 786 771 754 738 718 701 681 647 631 614 597 587 575 566 550 543 535 528 519 512 508 505 504 501 499 496 494 490 488 486 483 481 481 480 479 475 472 473 470 469 467 466 466 467 466 467 466 465 466 470 473 472 474 473 474 475 474 475 474 477 481 481 481 482 483 485 487 488 487 488 488 487 487 486 486 485 485 484 483 484 483 485 485 484 483 482 481 480 480 481 480 481 482 481 483 484 484 486 485 488 487 485 484 484 483 482 483 482 478 477 477 476 475 474 471 470 467 466 462 461 460 459 458 455 454 452 451 449 448 446 445 444 442 437 436 430 426 425 424 422 420 419 418 416 413 412 407 406 406 403 402 400 398 397 396 395 394 393 396 395 394 393 392 393 393 393 394 393 394 395 393 394 393 392 393 395 395 394 393 394 393 392 394 394 394 394 395 394 396 395 397 396 395 396 396 395 396 398 397 397 395 394 393 392 391 390 389 384 380 379 375 371 363 357 353 352 349 339 336 332 328 326 323 315 314 308 307 306 304 296 293 292 291 290 289 288 285 283 282 281 276 275 272 270 267 267 265 264 263 262 260 255 254 250 247 248 245 243 243 240 239 238 237 232 231 229 228 226 220 220 219 218 219 219 223 224 226 227 231 232 238 239 243 247 251 264 268 273 277 282 285 296 300 304 308 309 311 313 314 316 320 327 331 333 339 343 346 357 364 370 378 385 393 400 408 412 419 428 437 442 448 454 458 468 469 469 472 474 474 475 476 475 472 474 473 474 473 472 473 471 468 468 467 467 464 463 462 463 464 466 465 464 465 464 464 465 464 463 464 461 463 460 459 459 456 454 454 453 450 446 443 442 439 438 438 436 435 436 435 434 434 433 432 433 432 432 431 432 430 423 425 424 425 424 423 425 427 427 427 428 427 427 426 427 430 428 427 426 426 423 421 420 420 419 418 410 405 403 404 401 399 399 398 398 399 401 405 409 415 419 426 427 426 427 426 423 422 421 418 418 411 408 406 402 397 392 388 387 386 382 377 374 372 371 369 367 366 363 364 364 365 366 363 361 357 358 362 366 372 386 397 408 417 431 463 483 505 532 579 603 629 656 685 737 765 790 811 834 862 870 878 885 899 907 913 913 916 920 919 916
854 845 835 823 812 799 784 752 733 714 697 677 660 643 610 593 581 569 560 553 544 533 525 517 508 505 504 504 500 498 494 493 487 485 484 476 476 477 476 475 473 470 470 468 467 467 466 467 464 463 464 463 462 463 465 472 471 473 472 473 477 476 476 475 479 483 483 483 485 485 489 489 490 489 491 490 489 488 487 486 487 486 484 483 484 483 486 485 485 484 483 482 481 480 481 481 481 484 483 484 486 486 488 487 488 487 486 485 487 487 486 485 484 483 480 479 478 475 475 474 470 468 467 464 462 461 460 458 456 455 453 452 451 449 447 446 445 442 438 436 431 428 426 425 424 421 420 419 416 414 413 408 407 406 405 404 404 402 401 400 399 398 397 397 395 394 395 394 395 394 397 398 397 398 399 400 398 397 396 397 399 398 398 397 400 399 398 399 398 399 400 401 400 401 400 403 402 401 402 403 402 403 406 405 404 402 401 400 399 399 398 396 392 388 387 383 379 369 363 357 356 349 341 336 333 329 325 322 314 313 309 308 307 305 296 292 290 289 288 287 285 283 282 281 278 276 274 272 269 267 266 264 263 262 261 259 255 253 249 246 247 244 243 242 239 238 237 237 233 232 230 229 226 221 220 219 219 219 220 223 224 226 228 232 237 239 242 246 250 254 267 271 275 278 283 291 295 299 304 308 308 312 314 315 319 323 326 332 334 340 344 347 360 365 371 379 386 396 403 409 415 422 434 438 443 449 455 459 467 468 469 471 472 472 473 474 473 472 474 473 471 471 470 471 469 466 465 465 464 460 460 459 459 460 462 461 460 461 460 460 461 460 459 458 458 456 453 452 452 448 447 445 444 441 436 436 435 434 433 431 430 430 432 431 430 429 429 429 428 427 427 426 427 424 423 425 424 420 420 420 423 422 421 424 425 424 425 424 425 428 426 425 426 425 423 421 420 419 418 418 409 403 401 400 397 394 393 392 393 395 397 403 407 413 422 426 428 427 428 426 424 423 422 420 416 412 408 405 401 394 392 388 387 381 372 371 369 366 366 364 361 360 358 360 360 361 362 360 356 355 356 360 365 375 382 391 402 412 440 456 474 497 548 570 595 621 647 703 729 757 781 804 843 858 869 876 892 899 907 913 914 917 916 916 911
860 847 828 816 805 792 777 763 746 708 691 673 656 639 622 606 577 565 554 547 538 533 527 511 503 499 497 496 495 493 488 485 480 475 475 474 470 469 469 469 468 466 465 466 464 465 464 464 464 464 464 463 460 460 463 467 469 470 470 470 474 475 474 473 476 480 481 480 482 483 488 488 489 488 490 490 489 487 486 485 486 485 484 482 483 482 485 484 484 484 482 481 480 479 480 481 480 483 482 483 485 486 487 486 489 489 490 489 488 487 486 484 483 482 480 478 477 475 474 473 470 467 466 464 461 460 459 458 455 454 452 451 450 449 446 445 444 441 439 438 431 429 426 426 425 424 420 420 417 415 414 411 408 407 406 405 404 403 402 401 400 399 398 397 395 395 395 394 395 400 401 402 401 402 403 404 400 399 398 399 400 399 399 398 400 400 399 399 398 400 401 402 401 403 401 404 403 402 403 405 403 404 406 406 405 405 404 403 402 401 400 399 394 390 388 383 379 369 364 358 355 350 342 337 333 329 325 325 321 314 311 310 308 305 297 293 290 288 287 286 283 280 279 278 278 275 273 271 267 266 265 263 262 261 260 258 254 254 249 247 248 245 243 243 240 239 238 237 234 233 231 230 227 225 221 220 219 220 221 224 225 227 228 232 237 243 246 250 254 258 271 275 279 282 287 294 300 304 308 310 311 316 318 319 322 326 329 335 337 343 345 352 359 365 371 378 385 397 404 410 416 422 433 437 443 449 454 461 465 466 467 469 470 470 471 470 469 470 473 472 471 471 468 469 467 466 465 464 461 460 459 460 459 461 461 461 460 461 460 460 460 460 459 458 456 454 448 447 446 441 440 438 437 434 429 428 428 427 426 424 425 424 425 424 424 423 424 423 422 422 421 421 421 419 419 420 419 420 420 417 418 420 419 422 420 421 422 421 422 423 424 423 424 423 421 421 420 419 418 413 409 403 397 396 393 390 389 389 389 389 394 399 404 414 418 422 425 424 424 423 422 421 420 417 414 412 408 403 395 393 390 386 385 376 372 364 362 359 361 358 356 355 355 356 357 358 358 355 354 353 354 358 367 373 379 386 408 421 435 451 469 516 539 562 586 613 668 695 721 749 773 819 837 853 864 881 888 896 904 911 913 914 913 911 906
853 840 831 822 801 786 771 759 742 724 702 669 652 637 620 603 586 574 550 541 534 525 519 514 506 497 494 493 491 488 486 483 474 471 470 469 465 464 465 465 464 463 464 463 464 462 461 462 461 462 461 461 460 460 463 467 466 465 467 468 473 474 473 474 474 481 480 481 483 484 484 488 490 489 491 490 489 488 487 486 487 486 485 484 482 481 484 483 483 483 482 482 481 480 481 481 480 483 483 483 487 486 485 488 488 488 489 488 487 487 485 484 483 482 482 481 479 477 476 473 471 470 465 463 460 459 458 458 457 453 451 450 449 448 447 444 443 442 440 439 438 430 427 426 425 425 422 420 418 415 413 412 409 408 407 406 405 404 403 401 401 400 399 398 399 399 399 400 401 400 401 402 401 406 407 408 405 403 402 403 402 401 402 400 401 400 399 400 399 401 402 402 401 404 403 404 404 404 405 407 407 408 409 408 407 408 406 405 404 404 403 402 398 394 392 388 380 378 366 360 356 352 346 340 335 331 327 325 321 314 312 311 310 306 304 294 291 289 288 287 284 279 279 276 275 273 271 268 266 265 264 263 261 260 260 257 253 253 249 246 247 244 243 243 241 240 239 238 235 234 231 230 228 225 222 221 220 221 222 225 226 228 229 233 239 243 246 254 258 262 275 279 284 286 292 298 304 308 312 315 315 320 323 323 326 330 333 337 340 345 350 354 362 364 370 377 385 396 404 410 415 421 433 437 442 448 452 459 463 465 466 469 470 470 469 469 469 470 469 469 468 467 468 469 465 465 465 464 462 461 460 461 460 462 461 460 459 460 458 458 458 458 457 455 454 450 446 445 437 436 435 432 431 428 427 426 426 423 421 420 421 420 421 420 420 420 420 419 419 419 418 417 418 414 415 416 415 416 416 417 418 416 415 415 416 417 420 419 424 423 424 423 422 420 419 419 418 417 415 411 407 403 397 390 391 388 387 387 385 386 390 396 400 410 414 418 421 423 422 421 420 419 418 417 414 412 407 399 393 389 386 382 375 371 367 364 362 357 357 355 354 354 355 356 356 357 357 355 354 353 354 361 365 371 377 392 403 416 430 446 483 508 530 553 578 630 660 686 712 765 789 812 832 848 873 881 889 896 902 906 907 908 907 897 893
853 833 824 815 805 794 764 752 738 720 700 684 666 634 617 600 584 572 558 546 528 519 514 508 501 497 492 489 487 483 480 478 474 469 466 465 461 460 461 460 461 461 461 460 461 460 461 461 460 461 461 460 460 461 463 467 466 465 468 467 472 471 470 473 475 477 479 480 482 484 485 489 490 491 493 494 493 492 491 490 489 488 487 486 485 484 486 485 486 485 484 483 485 484 484 484 483 483 485 487 491 490 489 492 491 492 491 491 490 489 488 486 485 484 482 481 480 477 477 474 472 472 468 463 461 460 459 458 457 455 453 452 451 451 450 447 445 445 442 441 440 435 430 427 426 425 423 422 419 416 414 413 410 409 408 407 406 405 404 403 401 400 401 402 403 403 403 404 405 404 405 405 405 406 407 408 409 408 406 407 406 405 406 405 405 404 404 404 405 407 407 406 407 410 409 409 408 410 411 412 412 412 413 412 411 412 411 409 409 408 407 406 401 398 394 392 384 382 372 366 362 358 352 350 341 335 333 327 323 316 312 311 310 307 303 296 294 291 289 286 285 280 278 277 274 272 270 268 265 264 263 262 261 260 259 255 250 250 248 247 248 247 246 244 242 241 240 239 237 236 234 233 230 228 224 224 223 222 223 226 227 229 231 235 244 248 250 254 258 262 280 284 288 292 298 303 308 312 315 317 319 323 325 326 330 334 338 342 344 350 352 355 363 365 371 379 392 396 403 411 416 424 434 438 444 448 452 457 461 463 464 467 468 467 467 467 467 466 466 465 464 463 466 465 465 465 465 461 460 457 457 457 457 458 459 458 459 460 458 457 456 456 455 453 452 448 444 443 436 435 434 432 431 424 424 423 422 421 419 418 419 418 419 418 418 416 417 416 414 413 412 412 412 409 411 412 411 412 412 411 414 416 415 412 411 412 414 415 420 421 420 419 418 417 416 415 414 412 412 407 403 399 392 390 391 388 387 385 385 384 388 394 404 410 414 418 421 422 422 421 420 418 417 416 414 411 403 397 391 387 384 376 372 368 363 361 356 357 357 351 351 352 353 354 355 356 355 355 354 353 355 357 360 365 379 387 398 410 423 455 476 499 520 543 596 622 652 678 732 757 781 804 824 856 867 876 884 892 900 899 900 901 893 887 878
860 848 824 815 796 785 770 755 732 714 697 680 662 645 628 595 581 569 555 543 534 524 508 502 495 491 488 484 483 477 474 472 469 465 463 464 460 459 460 459 460 459 459 459 460 459 460 461 460 463 463 463 462 462 463 466 465 466 468 467 468 471 470 470 472 475 477 478 481 483 484 488 489 489 494 495 494 493 492 491 490 490 489 488 488 487 487 487 488 487 486 485 486 486 487 486 485 486 488 487 493 493 493 496 495 496 495 495 494 493 492 491 489 488 484 483 483 480 477 474 472 472 468 467 460 459 458 457 457 454 453 451 451 450 449 446 445 444 441 440 439 434 430 426 425 424 422 421 420 415 413 412 411 410 409 409 408 407 406 406 405 404 405 404 405 406 407 408 409 408 409 409 409 410 411 412 409 408 409 410 409 408 409 408 408 407 406 407 406 405 407 406 406 409 408 407 407 409 410 411 412 411 412 411 412 411 412 410 409 409 408 407 403 399 395 393 385 383 373 365 361 357 351 349 340 336 334 328 324 320 311 310 310 307 303 296 295 292 290 287 284 279 275 274 274 271 269 267 264 263 262 262 260 259 258 254 250 250 247 246 247 246 245 243 241 240 239 238 236 236 233 232 230 227 225 224 224 223 223 227 227 230 232 238 246 250 253 258 262 267 280 284 292 296 300 305 309 312 314 317 318 322 326 329 333 335 340 344 347 351 353 357 364 366 371 378 391 397 406 412 418 429 433 437 443 444 452 455 457 460 462 465 466 465 464 464 464 463 462 461 460 459 463 462 461 463 463 461 460 457 456 457 455 456 457 456 457 457 456 455 454 453 452 451 450 446 440 437 432 432 431 428 425 424 423 422 421 420 419 418 417 418 418 417 418 415 416 413 412 411 410 409 406 405 406 407 406 408 407 406 408 409 409 412 411 410 414 416 420 419 418 417 416 415 414 413 414 412 410 405 401 394 392 389 390 388 386 385 384 383 383 393 399 404 410 415 418 419 418 417 416 415 414 413 412 405 399 395 389 385 375 372 366 362 358 355 352 353 354 350 349 350 351 352 353 354 355 354 353 352 353 355 358 366 372 380 391 402 430 445 466 489 510 558 585 612 643 696 724 748 773 796 832 848 859 868 884 890 892 893 894 891 885 877 868
851 841 825 817 796 785 770 755 736 725 688 673 655 638 621 604 587 562 549 539 530 518 509 504 491 485 481 478 477 477 472 469 467 463 460 461 461 456 457 458 457 456 457 458 459 460 460 461 462 461 462 462 462 461 462 464 465 465 467 466 467 470 469 470 472 475 479 480 481 485 486 490 492 493 494 495 496 495 496 495 494 493 492 491 490 489 488 487 487 486 485 484 485 484 485 487 486 486 489 488 490 492 492 495 496 496 497 495 494 494 493 492 491 489 485 484 483 481 478 475 471 472 468 467 463 460 461 460 459 458 457 455 455 454 453 450 449 447 444 441 440 434 430 427 426 425 423 422 421 416 413 413 412 411 410 408 407 406 406 405 404 405 406 405 406 407 407 411 411 410 413 414 414 414 413 414 412 411 410 410 409 410 411 410 409 409 408 408 407 406 409 410 411 411 410 410 409 413 414 412 412 413 413 414 415 414 415 414 412 411 410 408 404 400 398 394 386 384 378 368 364 360 354 351 341 337 335 329 325 321 312 311 310 308 304 301 295 292 290 288 284 277 273 272 271 269 269 266 263 263 262 261 259 258 257 253 251 249 246 247 246 245 244 243 240 239 238 237 236 235 232 231 229 226 225 224 223 222 223 228 228 232 235 241 249 253 255 261 265 269 284 288 292 296 303 310 312 311 315 318 323 325 329 330 334 341 343 347 350 354 356 358 365 368 373 381 394 400 409 415 419 430 434 439 444 447 453 458 458 461 463 467 466 465 464 463 463 462 461 461 460 459 462 461 461 461 460 459 460 457 456 457 455 456 457 456 457 455 454 453 452 451 450 449 448 444 438 433 430 430 429 425 423 422 421 420 419 418 417 416 415 416 416 415 416 415 414 411 410 408 407 406 402 402 402 402 402 401 400 399 401 401 404 406 407 410 415 415 418 417 416 414 414 413 412 411 409 409 408 403 399 393 390 387 388 383 382 382 381 380 382 386 392 397 403 408 409 410 409 408 407 406 405 404 401 398 394 388 384 377 371 369 363 359 352 351 348 349 348 348 349 350 349 351 352 352 353 352 352 352 352 353 357 361 365 373 384 404 420 435 456 479 523 547 575 602 661 687 715 740 765 809 825 841 852 869 877 883 887 888 887 882 877 867 845
846 832 818 808 799 778 763 748 736 725 705 681 649 632 617 600 583 569 556 533 524 512 503 498 492 479 477 476 475 474 471 471 466 461 459 460 460 458 457 457 458 457 457 458 459 460 461 462 462 462 464 465 464 464 464 467 467 467 468 467 468 470 469 468 473 475 479 480 481 487 489 492 496 497 499 500 501 499 500 499 498 497 496 495 494 493 492 491 490 489 488 487 486 485 486 488 486 489 491 490 493 497 496 497 498 499 499 499 497 496 495 494 493 491 486 485 484 482 479 478 472 471 468 467 463 461 461 462 463 462 461 460 459 458 457 454 453 451 448 445 441 437 433 430 427 426 425 424 423 421 416 415 414 413 412 411 410 409 408 407 406 407 408 408 410 411 411 412 415 415 417 418 418 418 416 417 414 413 412 412 411 410 411 410 412 413 413 412 411 412 414 416 416 417 416 415 416 418 420 418 418 417 414 415 416 415 416 416 415 414 413 410 406 405 400 394 389 388 384 374 368 365 358 354 350 338 336 330 327 323 315 312 311 309 305 302 295 293 290 288 286 281 277 275 272 271 272 268 266 265 264 263 262 261 260 256 253 251 249 250 249 248 247 245 243 240 239 237 235 234 232 231 228 226 224 225 224 223 224 228 229 233 236 242 250 255 258 265 268 272 287 291 295 299 303 310 312 314 318 320 325 328 332 333 337 342 344 350 352 356 359 362 368 370 376 384 397 403 412 418 422 432 437 441 446 448 456 459 460 462 463 466 465 465 464 463 463 462 461 460 459 458 460 461 458 459 458 458 459 457 458 456 455 455 455 455 455 455 454 453 452 450 449 447 444 440 433 433 430 429 428 423 423 420 419 418 417 416 415 414 413 415 414 413 414 413 411 409 406 406 403 400 397 396 397 396 396 395 394 394 396 398 400 406 407 414 415 415 416 415 413 413 412 411 410 410 409 407 406 403 395 392 390 387 388 383 382 381 380 379 380 382 385 391 401 403 404 405 404 402 401 401 400 399 396 395 390 385 378 375 369 367 361 351 348 347 345 346 346 346 347 348 350 347 348 351 351 351 352 353 354 356 358 359 363 367 384 394 410 424 446 488 511 535 564 621 651 677 707 732 781 802 819 835 857 865 872 877 879 879 879 874 868 846 835
850 826 813 802 793 781 771 740 728 716 696 681 666 649 617 593 576 567 553 541 531 510 501 495 489 482 476 473 472 473 470 470 467 465 460 460 461 459 459 460 460 459 460 460 461 462 463 466 466 465 468 468 468 467 468 469 470 469 469 470 470 472 472 471 473 475 483 484 485 487 489 490 504 504 507 507 508 507 506 505 504 503 502 501 500 499 498 497 496 495 494 492 492 491 491 492 491 494 497 497 500 501 500 501 502 503 502 501 500 498 497 497 494 492 491 486 485 482 480 479 478 473 471 470 466 465 464 462 463 466 465 464 464 462 461 458 458 457 456 451 447 444 440 438 433 430 429 428 427 425 422 419 418 417 416 416 415 413 412 411 410 411 410 412 414 415 416 416 419 419 421 422 423 422 420 421 418 417 416 416 415 415 414 413 412 413 415 414 413 414 413 415 416 416 416 415 415 417 419 418 419 418 418 416 417 416 416 417 415 415 414 411 409 408 403 397 391 390 388 384 374 371 364 358 356 342 338 332 330 326 321 313 312 310 306 305 300 297 295 290 286 281 277 274 271 270 271 268 265 264 263 263 261 260 261 257 254 251 250 251 250 249 248 244 242 241 240 236 234 233 229 228 226 223 221 222 223 222 223 229 232 236 240 246 254 260 262 270 274 278 293 297 301 303 307 314 315 314 318 320 325 327 331 332 336 341 344 349 353 358 361 363 369 372 377 394 400 405 413 419 423 431 437 443 444 446 454 457 456 458 459 463 463 462 462 461 461 460 459 458 457 456 456 457 455 456 456 456 457 455 455 454 455 455 453 453 453 453 452 451 450 448 444 442 437 433 428 426 425 424 423 420 419 416 417 416 415 414 415 414 413 413 412 411 410 409 409 407 404 402 397 396 393 393 393 390 391 392 391 390 393 396 398 404 407 410 411 413 416 410 410 409 408 407 406 406 406 403 402 395 393 390 388 385 384 381 380 379 378 377 378 380 379 388 392 396 397 398 396 395 394 394 393 391 389 388 384 373 371 368 364 362 351 347 345 342 341 343 342 343 344 345 346 347 348 350 352 351 352 353 353 354 358 357 358 368 376 385 400 414 456 476 499 524 578 609 639 667 699 748 773 794 810 841 849 856 864 868 872 873 872 868 853 840 827
847 836 822 797 785 773 762 747 733 708 689 674 659 642 625 610 576 567 547 535 525 516 497 491 485 478 475 473 472 472 469 469 466 464 461 459 460 458 458 459 458 459 459 459 462 462 463 464 467 466 468 469 468 469 468 468 469 468 469 469 468 471 471 470 472 476 478 486 487 491 495 496 500 504 507 508 507 506 506 505 503 502 501 500 499 499 497 496 495 494 493 492 491 490 491 491 490 491 496 497 499 500 501 501 503 504 503 502 501 500 498 497 495 492 492 487 486 483 481 480 477 473 470 471 468 467 466 466 467 466 465 464 466 465 463 461 460 459 458 456 449 447 443 440 436 433 432 431 430 427 425 422 419 418 417 416 416 415 413 412 411 410 409 412 415 416 416 417 420 421 424 424 425 424 423 423 421 420 419 418 419 417 416 415 415 415 415 414 413 417 414 417 417 417 416 416 416 415 420 419 419 418 417 415 416 415 416 417 416 414 413 411 408 407 402 396 391 390 387 383 373 371 363 357 355 342 337 332 329 325 321 312 312 309 305 304 299 296 294 290 286 283 276 274 271 271 270 269 266 265 264 265 263 263 263 259 257 254 252 253 252 251 250 245 245 244 241 237 234 231 228 228 225 223 221 222 222 221 222 229 233 237 241 247 255 261 263 272 276 286 292 298 300 303 307 313 316 315 317 320 327 330 331 333 336 342 345 349 353 357 362 364 370 373 378 397 403 408 416 422 432 434 440 446 446 451 456 456 457 460 459 462 461 462 461 460 460 460 459 458 457 455 456 455 453 454 454 454 455 454 455 453 453 453 453 453 453 452 451 451 449 446 444 441 437 429 428 425 424 422 419 418 417 416 417 415 414 413 414 413 412 411 412 411 410 408 407 405 402 398 395 394 391 391 391 390 389 388 387 390 390 390 395 401 404 406 407 410 411 411 410 405 404 404 402 403 402 401 396 395 393 390 388 384 382 379 378 377 376 375 376 378 377 381 385 388 388 390 389 388 388 387 385 384 382 381 377 370 364 361 359 355 349 345 343 338 338 339 338 339 341 344 344 345 348 349 350 351 352 354 353 354 356 355 355 363 371 380 393 425 445 464 487 540 568 599 629 659 715 740 766 788 820 835 844 852 859 868 869 870 869 859 850 839 824
839 829 815 798 788 764 753 738 724 711 699 665 650 633 616 601 584 568 547 535 525 515 503 496 484 477 474 472 471 470 471 468 465 464 462 459 460 460 460 461 460 461 460 461 464 465 465 466 468 472 474 475 474 474 474 474 473 472 472 473 472 473 473 472 474 478 481 485 487 490 494 495 499 503 503 508 507 506 513 512 509 508 507 506 505 504 503 502 501 500 499 498 497 497 498 499 498 497 499 502 506 507 508 507 508 508 507 506 505 504 503 500 497 495 494 490 489 486 482 481 478 476 475 473 471 470 470 468 469 469 468 467 466 465 464 467 466 465 464 460 457 451 447 442 438 436 433 432 431 428 426 423 422 419 418 417 416 415 414 413 412 411 410 414 414 417 417 418 421 421 424 424 424 425 423 423 423 422 422 421 421 420 419 418 417 418 419 417 418 417 414 419 418 420 419 421 421 420 421 419 418 417 416 414 415 414 415 416 415 413 412 410 407 407 404 397 393 392 390 387 376 373 367 362 357 350 338 334 330 326 322 313 312 310 306 305 302 297 296 292 286 284 277 276 274 271 270 271 270 270 267 268 267 265 266 262 261 258 258 259 256 256 255 250 247 246 244 240 239 230 228 227 224 222 220 221 222 222 223 231 235 240 244 249 259 265 267 277 281 291 296 299 303 307 308 314 315 314 317 321 327 330 332 334 337 343 346 350 354 358 365 367 373 377 383 400 405 413 420 425 435 437 443 449 449 454 457 458 459 459 459 462 461 460 459 461 460 459 458 458 456 455 456 455 452 452 453 452 453 452 454 453 452 453 452 452 453 449 448 447 445 443 440 438 433 427 426 423 422 420 417 417 417 416 417 415 414 413 414 413 411 411 410 409 407 406 405 401 399 394 391 392 389 390 389 388 387 386 385 387 386 387 393 396 399 401 402 404 404 405 406 405 403 401 400 401 400 399 396 395 394 392 386 386 383 379 378 376 376 375 374 376 376 379 383 384 384 385 384 383 382 381 380 379 376 376 369 363 360 358 351 350 346 342 339 336 337 337 337 338 339 342 343 343 348 349 350 353 353 353 353 352 356 354 353 358 364 373 397 415 433 452 500 528 556 588 617 680 705 732 758 797 814 828 843 858 864 865 864 865 862 858 850 841 814
836 823 808 791 781 769 757 731 717 704 692 673 658 629 612 595 581 566 557 547 524 515 503 496 489 483 475 473 472 469 470 467 466 465 462 461 462 463 462 463 463 463 462 463 464 469 471 472 472 476 477 480 479 480 479 480 479 478 478 477 476 475 476 475 477 481 483 487 489 488 495 499 503 507 509 511 515 514 513 512 509 514 511 510 509 508 507 506 505 504 503 502 503 504 503 504 503 504 507 507 510 511 512 511 512 513 512 510 509 508 506 505 502 497 496 492 492 491 484 483 481 478 477 475 475 474 476 475 474 474 472 471 470 469 468 467 466 471 470 467 465 461 454 450 446 442 439 437 435 431 430 427 427 423 422 421 421 420 419 417 416 415 414 418 418 417 420 421 423 422 423 424 424 424 422 423 424 425 424 423 422 421 420 421 420 420 421 419 417 418 417 419 418 423 423 424 423 421 418 420 419 418 417 415 416 415 416 417 416 415 413 411 408 408 405 400 396 395 392 390 384 377 372 367 363 356 344 340 334 330 324 318 317 314 310 309 307 302 301 297 291 288 281 281 278 276 275 271 270 272 271 272 271 269 270 266 265 264 264 263 261 260 259 252 250 249 246 242 241 231 229 228 225 223 221 222 223 223 226 234 238 242 246 254 262 268 270 279 283 292 297 303 307 311 312 317 318 317 320 324 329 331 332 334 335 343 347 351 354 358 366 368 374 378 386 403 410 418 423 427 436 440 446 450 451 456 458 457 458 459 459 461 461 460 459 461 460 459 458 457 455 455 454 453 452 452 451 452 453 450 452 451 450 451 450 449 449 449 448 442 440 439 437 434 426 421 421 420 419 415 415 415 415 414 415 415 414 413 414 412 411 410 409 407 405 404 404 399 397 393 393 393 391 389 388 387 385 384 382 385 384 385 389 389 393 394 395 399 401 403 403 403 402 399 398 399 398 396 394 393 392 390 385 384 381 377 374 373 372 371 370 372 373 372 378 380 379 380 380 380 378 377 376 375 373 368 365 363 358 353 351 348 344 341 336 336 336 337 337 338 339 341 342 346 348 349 350 352 354 353 352 352 353 352 352 354 358 379 390 406 424 463 486 514 543 576 639 670 697 723 771 789 805 820 842 850 858 864 865 865 862 858 850 830 817
839 828 801 784 774 762 750 739 710 696 684 666 651 637 623 591 577 562 553 544 533 512 504 496 489 483 479 476 471 468 469 468 467 466 465 464 464 465 464 465 465 466 468 469 469 472 472 477 480 483 483 485 486 486 483 484 483 482 481 481 480 479 480 479 478 481 485 489 492 491 495 504 507 511 513 515 518 519 518 518 515 514 512 512 510 509 508 507 506 506 504 503 504 504 504 504 504 503 506 506 509 510 511 510 511 512 513 513 512 511 508 506 503 501 497 493 492 492 489 486 483 481 478 479 478 480 482 481 480 479 478 477 476 475 474 473 472 471 470 471 469 465 461 454 447 443 440 438 437 432 431 428 429 427 425 424 423 422 421 420 417 416 415 418 417 416 419 420 422 421 422 424 423 424 421 422 423 424 423 424 423 422 424 425 424 425 425 425 423 422 421 423 423 422 423 423 423 420 418 419 418 417 417 414 415 415 415 416 414 413 411 409 408 407 404 399 395 394 392 389 384 377 371 369 363 359 347 341 335 329 325 321 316 314 309 308 306 301 300 296 290 289 282 282 279 277 274 273 271 272 272 273 272 270 271 270 269 269 268 268 265 263 262 255 252 252 249 245 242 232 230 229 226 224 220 221 222 223 225 233 237 242 247 255 261 269 271 280 284 293 299 304 308 311 314 317 317 317 319 321 326 329 330 332 335 344 348 352 356 361 369 371 377 381 387 404 411 415 421 427 434 438 444 448 450 455 455 455 456 457 455 458 459 458 457 457 456 455 454 454 452 451 450 449 451 450 449 448 451 449 448 448 447 447 446 445 444 443 442 441 435 435 433 432 425 421 419 418 417 415 413 413 413 412 412 413 412 411 411 410 409 408 408 404 403 402 402 397 392 391 391 391 389 387 386 384 381 381 379 383 382 381 385 385 385 387 388 395 396 398 397 398 398 399 396 397 395 395 392 391 390 385 383 382 379 377 373 373 372 371 373 370 373 372 374 376 375 376 375 375 374 373 373 372 368 366 365 362 357 353 351 348 344 339 336 335 336 337 337 338 339 341 343 346 348 349 350 353 354 353 352 354 353 352 352 354 364 374 385 398 433 455 478 506 567 599 631 662 689 742 765 783 799 828 836 844 851 857 866 865 863 860 847 836 824
832 821 809 794 767 755 742 732 717 703 677 659 643 630 616 600 585 556 547 538 528 517 508 495 488 484 480 476 473 471 471 470 469 469 468 467 467 466 465 466 466 467 472 473 473 476 475 477 482 484 483 486 486 486 482 483 482 481 480 481 480 478 479 478 477 480 481 488 491 492 496 500 505 511 514 516 519 519 520 518 516 515 513 512 511 509 511 510 509 508 507 505 506 509 508 508 509 507 508 509 511 512 513 514 515 516 517 517 517 515 512 510 507 503 501 496 495 494 492 487 485 480 477 478 477 480 484 482 483 482 481 480 478 478 477 476 475 474 472 471 469 472 468 464 454 448 447 443 441 434 433 431 432 429 428 426 426 425 424 423 420 419 418 420 419 419 420 421 423 422 422 422 422 423 420 421 422 424 424 425 424 423 426 426 425 426 426 426 425 421 422 423 422 421 423 423 423 419 417 419 418 417 416 413 414 414 415 416 413 412 409 408 407 406 404 403 395 394 391 389 383 378 374 371 365 361 355 344 338 334 330 324 320 318 314 311 310 305 301 297 293 292 289 286 282 279 277 276 272 273 272 273 278 276 277 276 275 273 273 270 268 265 264 262 255 254 252 248 245 235 232 232 229 226 225 225 226 227 226 234 237 241 247 254 262 270 272 281 286 294 300 305 310 312 315 318 320 319 320 323 326 328 331 333 338 344 348 354 358 366 370 373 377 381 394 403 409 415 421 428 435 439 443 448 454 455 454 455 456 456 455 458 457 456 454 455 454 453 452 452 452 451 450 447 449 448 447 446 447 446 445 444 443 442 440 440 439 438 437 435 435 432 429 430 423 419 418 417 416 415 412 413 412 412 412 412 412 411 409 408 407 406 406 402 400 399 398 393 389 386 385 386 383 382 381 380 378 378 377 378 377 378 383 384 383 385 387 391 392 395 395 395 396 397 396 394 392 391 390 389 388 383 381 380 376 374 373 372 372 370 372 370 372 372 375 374 373 374 373 373 372 372 371 367 367 366 365 362 357 351 349 346 339 337 334 334 334 334 335 336 337 340 341 344 346 349 352 353 354 355 355 354 353 352 351 357 363 370 380 407 425 446 469 526 556 591 622 654 707 733 756 774 807 822 831 839 847 862 866 866 863 858 852 845 835
826 816 802 787 770 759 735 725 709 694 680 668 634 621 609 593 578 566 543 534 524 513 504 498 493 485 480 478 475 471 471 470 473 473 472 471 472 473 472 473 474 474 475 477 477 480 480 481 482 484 487 490 490 490 489 488 486 485 484 483 483 482 480 479 480 482 483 487 493 496 500 502 506 512 516 519 519 522 523 522 520 519 517 514 513 512 511 510 516 515 515 514 512 514 515 514 515 516 514 515 517 518 519 519 521 522 522 522 522 522 518 516 512 507 505 504 497 497 494 488 487 483 480 481 480 482 485 486 487 488 487 486 485 483 483 482 481 480 479 477 476 472 468 470 460 453 452 448 445 443 439 437 437 435 434 433 431 431 430 429 426 425 424 425 424 423 422 423 426 423 423 422 424 424 421 422 425 425 429 428 427 428 428 429 427 428 427 427 426 424 425 424 421 424 423 423 422 419 417 420 417 416 415 413 414 413 414 415 413 412 411 407 407 406 403 402 394 391 391 388 382 378 373 371 366 362 360 348 342 340 336 330 325 322 320 317 316 314 307 303 300 298 295 292 288 285 283 282 278 279 278 279 278 276 282 281 278 279 276 273 270 268 267 265 256 255 253 249 248 238 237 234 232 232 231 232 232 233 232 237 238 242 248 255 264 271 273 283 287 295 301 307 311 315 318 321 321 321 321 325 329 331 334 334 339 345 349 354 359 366 370 372 376 381 394 401 407 413 419 426 433 437 443 446 452 455 454 455 456 456 455 456 455 454 454 455 454 453 452 452 451 450 450 447 449 448 447 444 444 442 441 440 439 438 437 436 435 434 433 432 431 432 424 424 421 419 418 417 416 415 412 413 412 412 411 412 411 410 409 408 407 406 403 404 401 400 398 393 390 388 387 386 383 382 381 377 377 376 373 376 375 380 383 382 381 383 387 389 388 389 388 392 393 394 393 393 390 389 388 387 386 382 379 378 373 372 371 371 370 368 371 368 371 372 371 371 373 374 372 373 372 371 370 367 366 366 365 358 357 351 349 342 341 338 336 335 335 334 335 336 339 342 343 345 348 353 354 355 356 357 356 356 355 354 352 355 361 365 386 398 416 438 489 517 547 582 614 672 699 725 748 788 804 819 828 836 851 859 865 868 866 864 861 859 843
836 810 797 780 763 751 739 727 701 687 673 661 644 629 603 588 572 562 548 539 520 512 505 501 495 489 483 480 479 475 474 475 474 473 477 478 479 479 480 480 481 482 482 485 485 487 488 488 489 491 494 495 496 495 494 493 491 489 488 487 487 486 485 483 484 485 487 491 495 500 504 506 510 516 520 524 525 528 528 529 528 525 522 521 521 520 519 517 516 515 517 516 515 515 518 517 517 518 519 519 520 522 523 524 524 526 527 526 527 524 523 518 514 510 507 507 501 497 495 491 490 487 483 483 484 485 487 491 493 494 493 492 491 490 488 487 487 486 485 484 482 480 476 470 467 455 454 450 448 445 443 439 440 438 437 436 435 433 432 431 429 428 426 427 426 425 425 427 430 428 425 426 428 427 426 427 427 428 429 432 431 432 433 434 433 434 433 433 432 431 431 428 426 428 427 426 423 420 420 420 419 417 416 414 415 415 415 414 414 413 412 409 408 407 403 402 398 389 388 386 380 378 371 368 366 362 359 349 347 344 342 336 333 330 327 325 324 321 315 310 308 305 303 299 295 293 290 288 284 285 284 285 284 282 282 282 279 278 277 274 272 269 268 266 257 256 254 250 249 239 238 235 233 234 232 233 233 234 233 237 237 241 247 255 263 270 273 282 288 294 300 308 312 316 319 322 323 322 323 326 330 332 335 336 341 346 351 355 359 365 368 372 376 380 392 399 405 411 415 422 429 434 439 442 447 449 450 449 450 452 451 452 451 450 452 451 450 449 448 447 446 445 444 443 445 444 443 441 438 437 434 433 432 431 430 429 428 427 426 425 424 425 424 419 418 415 414 413 412 411 410 411 409 410 411 412 411 409 409 408 407 404 401 402 401 398 395 392 390 387 387 383 382 381 379 376 376 376 373 374 374 375 377 376 376 377 380 382 381 382 384 388 389 390 392 391 390 387 386 385 384 380 377 374 373 374 373 370 369 368 370 368 368 370 370 369 370 371 371 371 371 369 368 367 366 365 362 358 357 351 346 343 343 340 337 336 335 334 335 338 341 344 344 347 352 355 356 356 356 357 360 359 358 353 352 353 359 369 380 392 410 452 481 509 539 574 637 664 690 717 761 779 796 810 822 837 845 854 860 869 872 871 868 865 861
831 814 803 773 756 744 732 719 707 678 664 652 635 620 606 594 567 556 544 535 528 517 504 500 494 488 486 483 482 479 478 479 480 479 477 478 479 483 484 483 484 486 486 489 488 487 489 491 491 494 495 495 496 496 495 494 493 492 492 490 489 488 487 486 485 485 488 492 496 498 500 507 509 515 519 521 524 527 531 532 531 530 527 524 523 522 521 521 520 518 517 516 518 515 518 518 518 519 518 519 519 521 522 523 524 524 526 525 526 523 523 520 515 509 507 506 500 498 494 490 489 487 484 483 485 486 488 492 493 498 497 496 495 494 493 492 491 490 489 488 485 481 477 471 468 461 454 453 452 449 449 448 446 443 443 442 441 439 438 437 435 434 433 431 431 430 427 430 431 429 428 429 429 427 427 428 428 431 432 435 434 435 435 436 435 435 434 434 433 432 430 428 425 428 427 424 422 422 421 420 419 417 417 415 416 417 415 414 413 412 411 407 405 405 400 400 395 389 386 384 379 375 369 366 364 361 359 354 348 345 341 337 334 333 330 327 327 324 317 316 314 310 307 301 296 294 293 289 285 286 287 284 284 283 283 282 279 278 277 273 271 270 269 267 258 257 255 251 250 240 239 236 234 235 235 234 234 235 234 238 237 243 248 256 264 272 274 282 287 294 301 309 313 317 320 323 324 323 324 325 329 332 334 335 342 346 350 354 357 365 367 371 377 381 393 399 405 411 413 420 426 430 436 438 443 446 445 444 447 448 449 448 447 447 447 446 447 446 446 445 444 443 442 441 441 441 440 439 434 433 432 431 431 429 428 425 425 423 422 420 419 420 420 419 414 412 411 411 410 409 410 411 409 410 411 410 408 407 405 404 403 398 397 398 397 397 393 391 388 387 384 383 382 381 380 377 378 377 375 374 372 371 372 373 375 375 378 377 380 381 384 386 387 387 388 387 386 387 385 385 384 380 379 375 373 374 373 371 370 369 372 369 369 370 370 369 374 371 370 371 370 369 368 367 366 365 364 358 357 353 348 345 344 342 338 337 337 336 339 342 344 347 349 351 354 356 359 361 360 361 363 362 361 356 356 355 360 366 374 385 422 446 472 500 530 597 629 655 682 732 755 773 789 817 828 836 844 853 867 871 874 877 880 881 879
824 808 798 783 766 738 726 714 702 685 673 647 630 614 601 588 575 552 540 532 525 515 507 501 493 489 487 484 483 482 479 480 481 480 479 480 479 483 484 491 491 494 494 496 495 494 497 497 499 500 499 499 500 499 498 497 496 495 494 493 491 491 490 489 488 489 489 493 497 499 503 507 513 519 523 525 528 532 537 536 535 532 531 529 526 525 524 523 522 521 520 517 518 515 524 521 523 523 523 523 522 526 526 527 528 527 528 526 527 524 524 521 520 510 508 507 501 499 498 491 490 489 487 486 489 488 491 495 496 496 498 497 498 497 496 495 495 494 493 493 492 485 483 477 474 467 461 453 452 457 453 452 450 448 447 446 445 444 443 442 439 438 437 437 437 436 433 436 436 435 434 435 435 433 431 432 431 433 434 437 438 439 440 441 440 440 439 438 437 436 435 434 431 432 431 429 425 424 423 423 420 418 417 416 417 418 417 413 413 412 411 407 405 404 398 397 393 386 384 381 379 375 372 367 363 360 360 355 352 350 345 343 340 339 338 335 334 332 325 324 322 316 313 307 302 300 299 295 292 292 291 289 288 285 282 281 279 282 281 276 274 273 270 269 261 260 259 255 253 244 243 241 238 239 239 238 239 240 239 240 240 245 251 255 265 273 275 283 285 295 303 310 314 318 322 324 325 324 325 327 331 333 336 337 343 347 350 354 356 365 367 369 375 381 395 399 405 409 411 418 424 428 434 439 441 441 440 442 446 445 447 446 446 444 443 442 443 442 442 441 440 440 439 437 438 437 436 435 432 431 430 429 426 425 424 424 423 421 420 418 417 418 418 415 414 410 410 409 408 407 408 408 407 408 409 408 406 407 405 404 403 398 399 398 397 397 395 392 390 389 384 383 382 381 378 377 378 377 374 371 372 371 372 373 374 375 376 377 379 381 384 386 387 387 388 387 386 386 385 385 384 379 378 375 373 374 372 371 370 369 372 370 369 370 369 369 372 371 370 371 369 369 368 367 365 364 364 358 357 353 349 347 346 344 343 342 342 341 344 347 349 352 352 356 359 361 363 366 365 366 367 365 362 358 357 359 360 364 370 396 416 439 465 494 557 589 621 649 704 727 750 770 801 816 827 835 842 861 869 875 880 888 891 895 898
818 801 791 776 759 743 731 705 693 676 662 650 638 605 592 581 569 558 549 532 524 514 506 501 498 492 489 487 486 485 482 482 483 484 483 487 486 487 491 491 491 501 500 501 502 501 504 505 505 506 506 507 506 505 504 503 501 502 501 501 500 499 497 495 494 494 494 494 502 505 509 513 515 523 527 531 534 538 538 542 541 540 539 536 534 532 531 530 530 529 528 525 524 523 524 521 526 528 528 528 527 526 528 528 529 528 529 528 528 525 524 522 521 517 509 508 504 501 499 498 496 495 494 494 493 494 495 499 502 502 505 503 504 503 502 501 500 500 499 499 498 497 490 484 482 474 469 468 459 457 460 460 459 454 453 452 451 450 449 448 445 444 445 444 442 442 441 443 444 443 441 442 441 439 440 436 435 439 440 443 445 445 446 447 446 445 445 444 443 442 441 440 437 438 435 433 432 427 426 425 423 422 419 416 417 417 416 411 410 409 410 406 404 404 398 397 393 387 383 381 378 374 372 367 362 360 359 357 355 354 350 347 345 343 342 340 339 336 333 332 329 325 321 319 312 308 307 303 300 298 297 295 294 292 288 287 285 282 281 277 275 272 270 269 262 261 260 256 254 249 248 245 244 243 243 243 243 244 243 243 242 246 252 255 265 272 275 282 286 296 304 311 315 320 323 325 326 325 326 328 332 334 337 338 344 349 349 354 356 363 365 369 372 377 391 395 403 407 412 416 422 424 430 437 436 435 434 435 439 441 440 439 439 437 436 437 438 437 439 438 437 436 434 433 434 433 433 431 430 429 428 428 424 423 422 422 421 419 418 416 415 415 416 413 412 408 408 407 406 405 406 406 405 406 407 405 405 405 403 402 399 398 399 398 397 397 394 392 389 386 383 383 382 381 378 377 378 377 373 371 372 371 372 373 374 375 376 377 379 381 384 386 388 387 388 387 386 386 390 390 385 380 378 377 374 375 372 371 370 369 368 368 368 368 368 368 370 369 370 370 369 369 368 366 365 364 364 358 356 353 351 348 347 346 345 344 343 343 346 348 351 356 355 360 364 367 366 367 367 367 366 365 361 356 355 357 356 359 375 389 409 432 459 515 549 580 612 669 697 721 744 782 796 811 824 833 851 860 868 874 888 896 898 906 920
823 811 784 767 750 736 724 710 696 669 655 641 629 612 597 576 563 553 544 535 528 510 504 500 499 496 492 489 488 487 486 485 486 488 488 492 492 492 496 498 499 501 500 500 504 504 506 507 506 509 509 509 508 507 507 506 505 505 504 503 502 501 500 497 496 497 496 497 498 504 508 512 514 518 524 534 538 542 544 548 549 547 546 544 541 541 537 536 535 533 532 531 528 527 529 527 526 527 531 529 528 527 529 527 528 527 528 527 526 525 524 521 521 516 511 507 503 501 498 497 496 495 494 493 492 493 494 498 501 502 504 503 503 502 501 501 500 500 499 498 499 498 494 492 489 482 476 475 468 463 460 460 461 461 459 458 457 456 455 454 451 450 451 450 451 449 448 451 450 449 446 445 444 442 442 440 438 442 443 445 448 448 449 449 448 448 448 447 446 445 444 442 438 439 437 436 435 430 429 426 424 423 420 417 418 417 419 415 411 411 410 406 405 403 396 395 390 385 381 379 376 372 370 364 360 358 357 356 354 353 349 348 348 348 345 342 342 339 338 335 332 328 324 321 316 312 311 307 304 299 299 296 293 291 288 287 284 282 281 277 278 275 274 273 267 266 265 261 261 256 254 251 250 250 248 247 248 249 248 248 247 248 252 254 264 272 274 280 286 296 303 311 317 321 324 327 327 327 327 329 333 336 338 339 342 347 349 352 357 359 362 366 372 380 387 391 399 403 408 414 420 422 428 433 434 433 432 433 437 437 437 436 435 435 434 435 434 434 433 434 433 432 431 430 429 428 427 426 425 424 423 422 421 418 417 416 415 414 413 412 411 411 412 411 410 408 406 405 404 404 405 404 404 404 405 404 403 404 403 399 399 398 399 398 398 399 396 393 391 388 385 382 382 380 377 377 377 377 373 371 372 371 372 373 374 375 376 379 378 383 385 390 391 390 391 392 392 391 397 396 386 385 383 382 379 376 375 374 372 368 366 367 366 367 367 368 370 369 371 370 371 370 369 368 367 366 365 358 358 357 354 353 352 351 350 349 349 350 353 353 360 361 362 366 372 374 373 373 372 368 366 367 362 357 355 356 355 363 373 384 402 424 477 507 540 572 632 662 689 712 755 775 792 806 821 840 851 861 868 886 894 903 909 927 934
