0 0 0 0 0 0 0 0 0 0 0 0 0 0 0 0 0 0 0 0 0 0 0 0 0 0 0 0 0 0 0 0 0 0 0 0 0 714 714 714 714 715 714 715 715 715 715 716 717 718 718 719 719 718 718 717 716 716 715 715 715 715 715 715 715 716 718 719 720 722 724 725 726 729 731 732 0 0 0 0 0 734 733 734 733 732 732 733 732 733 0 0 0 0 0 0 0 0 0 737 737 737 737 737 737 736 736 736 734 733 0 0 0 0 0 0 0 0 0 279 279 279 0 0 0 0 0 0 0 0 0 0 0 0 0 0 0 0 0 0 0 0 0 0 0 0 0 0 0 0 0 0 679 678 676 675 674 671 670 669 668 667 0 0 0 0 0 0 0 0 0 0 0 0 0 0 0 0 0 0 0 0 0 0 0 0 0 0 0 0 0 0 0 0 0 0 0 0 0 637 638 639 639 640 640 641 0 0 0 0 0 0 0 0 0 0 0 0 0 0 0 0 0 0 0 0 0 0 0 0 0 0 0 0 0 0 0 0 0 0 0 0 0 0 0 0 0 0 0 0 0 0 0 0 0 0 0 280 280 280 281 281 282 283 284 284 284 285 286 286 287 287 288 289 289 290 291 292 293 294 295 296 297 298 298 299 301 302 303 304 0 308 310 312 314 315 317 318 319 319 364 365 366 367 368 369 370 371 371 372 0 0 0 0 0 0 0 0 0 0 0 0 0 0 0 0 0 314 314 314 313 313 312 311 311 310 308 0 305 304 303 302 302 301 301 301 301 300 300 300 299 299 298 298 298 297 297 297 296 296 296 296 296 296 296 296 296 296 296 296 296 297 297 297 297 297 298 298 298 299 299 299 299 299 300 300 300 300 300 300 300 300 300 301 301 301 301 302 0 0 0 0 0 0 0 0 0 0 0 0 0 864 864 865 866 865 865 866 866 866 866 865 865 864 864 863 862 860 859 858 857 856 854 853 853 852 851 850 849 849 847 847 846 846 846 845 845 845 845 845 844 844 843 842 842 842 841 839 838 837 836 835 833 832 830 829 827 827 826 826 826 825 825 825 826 826 826 826 826 826 826 826 826 825 825 824 824 823 822 821 819 818 816 815 814 813 812 811 810 809 808 808 807 807 806 806 806 805 805 803 802 801 800 799 797 796 795 794 793 792 792 791 790 789 788 788 787 786 785 785 784 784 784 784 783 783 782 782 782 781 781 780 780 780 779 778 778 776 775 773 772 770 769 768 766 765 763 762 762 761 761 760 759 759 758 758 757 757 756 756 755 755 755 754 753 751 750 749 747 746 745 744 743 742 741 740 739 738 738 737 737 737 736 735 735 735 734 734 734 733 733 733 732 732 731 731 731 730 730 729 728 727 726 726 725 725 724 723 723 722 722 721 721 720 719 719 719 718 718 717 716 716 715 715 715 715 715 715 715 715
0 0 0 0 0 0 0 0 0 0 0 0 0 0 0 0 0 0 0 0 0 0 0 0 0 0 0 0 0 0 0 0 0 0 0 0 0 0 0 714 714 714 715 715 715 715 716 717 718 719 719 719 719 718 718 717 716 715 715 714 712 712 712 712 711 712 712 714 715 717 719 720 723 0 0 0 0 0 0 0 0 0 0 0 732 731 732 732 732 0 0 0 0 0 0 0 0 0 0 737 738 738 738 737 738 738 737 0 0 0 0 0 0 0 0 0 278 278 278 279 279 279 279 279 279 0 0 0 0 0 0 0 0 0 0 0 0 0 0 0 0 0 0 0 0 0 0 0 0 0 0 0 0 0 0 0 0 0 0 0 0 0 0 0 0 0 0 0 0 0 0 0 0 0 0 0 0 0 0 0 0 0 0 0 0 0 0 0 0 0 0 0 0 0 0 0 0 0 0 0 0 0 0 0 0 0 0 0 0 0 0 0 0 0 0 0 0 0 0 0 0 0 0 0 0 0 0 0 0 0 0 0 0 0 0 0 0 0 0 0 0 0 0 0 0 0 0 0 0 0 0 0 0 0 0 0 0 0 279 0 0 0 0 283 283 283 284 284 285 286 286 287 287 288 289 290 291 292 293 294 295 296 297 298 298 299 300 301 302 303 0 0 309 311 313 315 317 318 319 0 364 365 365 367 368 369 370 371 371 372 0 0 0 0 0 0 0 0 0 0 0 0 0 0 0 0 0 314 314 314 314 313 313 0 311 311 309 308 306 305 304 303 0 302 301 301 301 300 300 300 299 299 299 298 298 298 297 297 297 297 297 296 296 296 296 296 296 296 296 296 297 297 297 297 297 298 298 298 299 299 299 299 299 300 300 300 300 300 300 300 300 300 301 301 301 301 302 302 303 0 0 0 0 0 0 0 0 0 0 0 0 863 862 864 864 863 864 864 864 865 865 864 864 864 863 863 862 860 859 858 857 856 854 853 852 851 850 850 849 849 847 847 846 846 845 845 845 845 845 845 844 844 843 843 842 842 841 839 838 837 836 835 834 832 830 829 828 827 827 826 825 825 825 825 825 825 826 826 826 826 826 825 825 825 825 825 824 823 822 821 819 817 816 814 813 812 811 810 809 808 808 807 807 807 806 806 806 805 805 803 802 801 800 799 798 796 795 794 794 793 792 791 790 789 789 788 787 787 786 785 785 785 785 784 784 784 783 783 782 782 781 781 781 780 779 779 778 777 776 774 772 771 770 769 767 766 765 764 763 763 762 762 761 760 760 759 759 758 758 757 757 756 755 755 754 752 751 750 748 747 745 745 743 742 741 740 739 738 738 737 737 737 736 735 735 735 735 734 733 733 733 733 732 732 731 731 731 731 731 730 729 728 728 727 726 725 725 725 724 724 723 723 722 721 720 720 719 719 718 718 717 716 716 716 716 716 716 715 715 715
0 0 0 0 0 0 0 0 0 0 0 0 0 0 0 0 0 0 0 0 0 0 0 0 0 0 0 0 0 0 0 0 0 0 0 0 0 0 0 0 712 713 713 713 713 714 715 715 717 718 719 719 719 719 718 717 716 715 713 712 710 710 709 708 707 707 707 707 708 710 712 715 0 0 0 0 0 0 0 0 0 0 0 0 0 0 0 0 0 0 0 0 0 0 0 0 0 0 0 0 0 738 738 738 0 0 0 0 0 0 0 0 0 0 0 277 277 278 278 278 278 278 278 278 278 278 0 0 0 0 0 0 0 0 0 0 0 0 0 0 0 0 0 0 0 0 0 0 0 0 0 0 0 0 0 0 0 0 0 0 0 0 0 0 0 0 0 0 0 0 0 0 0 0 0 0 0 0 0 0 0 0 0 0 0 0 0 0 0 0 0 0 0 0 0 0 0 0 0 0 0 0 0 0 0 0 0 0 0 0 0 0 0 0 0 0 0 0 0 0 0 0 0 0 0 0 0 0 0 0 0 0 0 0 0 0 0 0 0 0 0 0 0 0 0 0 0 0 0 0 0 0 0 0 0 0 0 277 0 0 0 0 0 282 283 283 283 284 284 285 285 286 287 287 288 289 290 292 293 294 295 296 297 298 298 299 300 300 301 302 303 305 307 309 0 0 315 317 0 0 364 365 366 367 367 369 370 371 371 372 373 0 0 0 0 0 0 0 0 0 0 0 0 0 0 0 0 314 314 314 313 313 313 0 0 0 0 0 0 0 0 304 303 302 302 301 301 300 300 300 300 299 299 299 298 298 298 297 297 297 297 297 297 297 297 297 297 297 297 297 297 297 297 297 298 298 298 298 299 299 299 299 299 300 300 300 300 300 300 300 300 301 301 301 301 302 302 303 303 304 0 0 0 0 0 0 0 0 0 0 0 862 860 863 863 863 863 863 863 864 864 863 863 863 863 862 860 859 859 858 857 856 854 853 852 851 850 850 849 847 847 846 846 845 845 845 845 845 845 845 844 844 843 843 842 842 841 841 838 837 836 835 834 833 830 829 828 828 827 826 826 825 825 825 825 825 825 825 825 825 826 825 825 825 825 825 824 823 822 821 819 817 815 814 813 812 810 809 809 808 807 807 806 806 806 806 805 805 803 803 802 801 800 799 797 796 795 795 794 793 792 791 790 789 788 788 787 787 786 786 785 785 785 785 784 784 783 783 783 782 782 781 781 780 780 779 778 777 776 775 773 772 770 770 769 767 766 765 765 764 764 763 763 762 762 761 761 760 760 759 759 758 757 756 755 754 753 751 749 748 746 745 744 743 742 741 740 739 738 737 737 737 736 735 735 734 734 734 734 733 733 733 733 732 732 731 731 731 731 731 731 730 729 729 728 727 726 725 725 725 724 723 723 722 721 720 720 719 719 718 718 717 717 717 716 716 716 716 715 716
0 0 0 0 0 0 0 0 0 0 0 0 0 0 0 0 0 0 0 0 0 0 0 0 0 0 0 0 0 0 0 0 0 0 0 0 0 0 0 0 710 710 711 711 711 712 713 714 715 716 718 718 718 717 717 716 715 714 711 710 708 707 706 705 704 703 703 703 704 705 706 0 0 0 0 0 0 0 0 0 0 0 0 0 0 0 0 0 0 0 0 0 0 0 0 0 0 0 0 0 0 0 0 0 0 0 0 0 0 0 0 0 0 0 0 277 277 277 277 277 277 277 277 277 277 277 277 0 0 0 0 0 0 0 0 0 0 0 0 0 0 0 0 0 0 0 0 0 0 0 0 0 0 0 0 0 0 0 0 0 0 0 0 0 0 0 0 0 0 0 0 0 0 0 0 0 0 0 0 0 0 0 0 0 0 0 0 0 0 0 0 0 0 0 0 0 0 0 0 0 0 0 0 0 0 0 0 0 0 0 0 0 0 0 0 0 0 0 0 0 0 0 0 0 0 0 0 0 0 0 0 0 0 0 0 0 0 0 0 0 0 0 0 0 0 0 0 0 0 0 0 0 0 0 0 0 274 0 277 0 0 0 281 282 282 282 283 283 284 284 285 285 286 287 288 289 290 291 293 294 295 296 297 298 298 299 299 300 301 301 0 304 0 0 0 0 0 0 0 363 364 365 366 366 368 368 370 371 371 372 373 0 0 0 0 0 0 0 0 0 0 0 0 0 0 0 0 0 314 314 313 313 313 312 312 0 0 0 0 0 0 0 304 303 302 301 301 300 300 300 300 300 299 299 299 298 298 298 298 297 297 297 297 297 297 297 297 297 297 297 297 297 297 297 298 298 298 298 299 299 299 299 300 300 300 300 300 300 300 300 300 301 301 301 302 302 303 303 304 304 305 306 306 307 307 0 0 0 0 0 0 860 860 860 862 862 862 863 863 863 863 863 863 862 862 860 860 859 858 857 856 854 854 853 852 851 850 850 849 847 847 846 846 845 845 845 845 845 845 845 844 844 843 843 842 842 841 841 839 837 836 835 835 833 832 830 829 828 827 826 826 825 825 825 825 825 825 825 825 825 825 825 825 825 824 824 823 823 822 819 818 816 815 814 813 812 810 809 808 808 807 807 806 806 805 805 805 803 803 802 801 801 800 799 798 797 796 795 794 793 792 791 790 789 788 788 787 786 786 786 785 785 785 784 784 784 783 783 783 782 782 781 781 780 780 779 778 777 776 775 774 773 772 770 770 769 768 768 767 767 766 766 765 765 764 764 764 763 762 762 761 760 759 757 756 755 754 752 750 749 747 745 745 744 742 741 740 739 738 737 737 737 736 735 735 734 734 734 734 733 733 733 733 733 732 732 732 732 732 731 731 731 730 730 729 728 727 726 725 725 725 724 724 723 722 721 720 720 719 719 719 718 718 717 717 717 716 716 716 716
0 0 0 0 0 0 0 0 0 0 0 0 0 0 0 0 0 0 0 0 0 0 0 0 0 0 0 0 0 0 0 0 0 0 0 0 0 0 0 0 709 709 709 710 710 710 710 712 714 715 716 716 716 717 716 715 714 712 710 708 706 705 703 702 701 700 699 698 699 700 0 0 0 0 0 0 0 0 0 0 0 0 0 0 0 0 0 0 0 0 0 0 0 0 0 0 0 0 0 0 0 0 0 0 0 0 0 0 0 0 0 0 0 0 0 276 276 276 276 277 277 277 277 277 277 276 276 0 0 0 0 0 0 0 0 0 0 0 0 0 0 0 0 0 0 0 0 0 0 0 0 0 0 0 0 0 0 0 0 0 0 0 0 0 0 0 0 0 0 0 0 0 0 0 0 0 0 0 0 0 0 0 0 0 0 0 0 0 0 0 0 0 0 0 0 0 0 0 0 0 0 0 0 0 0 0 0 0 0 0 0 0 0 0 0 0 0 0 0 0 0 0 0 0 0 0 0 0 0 0 0 0 0 0 0 0 0 0 0 0 0 0 0 0 0 0 0 0 0 0 0 0 0 0 0 272 271 272 0 0 0 0 281 282 282 282 283 283 284 284 285 285 286 286 287 289 290 291 292 294 295 296 297 298 298 299 0 300 300 301 0 303 0 0 0 0 0 361 362 363 364 364 365 367 368 369 370 371 371 372 373 0 0 0 0 0 0 0 0 0 0 0 0 0 0 0 0 0 0 314 313 313 313 312 312 311 0 0 0 308 0 305 304 303 302 302 301 301 301 300 300 300 299 299 299 299 298 298 298 298 298 298 298 297 297 297 297 297 297 297 297 297 297 298 298 298 298 299 299 299 299 299 299 300 300 300 300 300 300 300 301 301 301 302 302 303 303 304 304 305 306 306 307 307 307 307 0 0 0 0 0 859 859 860 860 860 862 862 862 862 862 862 862 862 862 860 859 859 858 857 856 856 854 853 852 851 850 850 849 847 847 846 846 845 845 845 845 845 845 845 844 844 843 843 843 842 842 841 839 838 837 836 835 834 832 830 829 828 827 827 826 825 825 825 825 825 824 824 824 824 824 824 824 824 824 823 823 822 821 819 818 816 815 814 813 812 810 809 808 807 807 806 806 805 805 803 803 803 802 802 801 800 799 799 798 797 796 795 794 793 791 791 790 789 788 787 786 786 786 785 784 784 784 783 783 783 783 783 782 782 781 781 781 780 779 779 778 778 777 776 775 774 773 772 771 770 770 770 769 769 769 768 768 767 767 766 766 765 764 764 763 762 761 759 757 755 755 753 751 750 748 746 745 744 743 741 740 739 738 737 737 737 736 735 735 735 734 734 734 734 733 733 733 733 733 733 733 733 732 732 732 731 731 731 730 729 728 727 727 726 725 725 725 724 723 722 721 720 720 719 719 719 718 717 717 717 717 717 716 716
0 0 0 0 0 0 0 0 0 0 0 0 0 0 0 0 0 0 0 0 0 0 0 0 0 0 0 0 0 0 0 0 0 0 0 0 0 0 0 0 706 706 706 707 707 708 710 711 713 714 715 716 716 717 716 715 715 712 709 707 706 703 702 700 698 698 696 695 695 695 696 0 0 0 0 0 0 0 0 0 0 0 0 0 0 0 0 0 0 0 0 0 0 0 0 0 0 0 0 0 0 0 0 0 0 0 0 0 0 0 0 0 0 0 0 276 276 276 276 276 276 276 276 276 276 276 276 0 0 0 0 0 0 0 0 0 0 0 0 0 0 0 0 0 0 0 0 0 0 0 0 0 0 0 0 0 0 0 0 0 0 0 0 0 0 0 0 0 0 0 0 0 0 0 0 0 0 0 0 0 0 0 0 0 0 0 0 0 0 0 0 0 0 0 0 0 0 0 0 0 0 0 0 0 0 0 0 0 0 0 0 0 0 0 0 0 0 0 0 0 0 0 0 0 0 0 0 0 0 0 0 0 0 0 0 0 263 0 0 0 0 0 0 0 0 0 0 0 0 0 0 0 0 267 0 268 268 270 0 0 0 279 280 281 282 282 282 283 283 284 284 285 285 286 287 289 290 291 292 294 295 296 297 297 298 299 299 300 300 301 301 302 302 0 0 0 0 360 361 362 363 364 365 367 368 369 370 371 0 0 0 0 0 0 0 0 0 0 0 0 0 0 0 0 0 0 0 0 0 313 313 313 313 312 312 311 311 310 309 308 307 306 305 0 303 302 302 301 301 300 300 300 300 299 299 299 299 298 298 298 298 298 298 298 298 298 298 298 297 297 297 298 298 298 298 298 298 299 299 299 299 299 300 300 300 300 300 300 300 301 301 301 302 302 303 303 304 304 305 305 306 306 307 307 307 308 308 0 0 0 0 859 859 859 860 860 860 862 862 862 862 862 862 862 860 860 859 858 858 857 856 856 854 853 852 851 851 850 849 847 847 846 846 845 845 845 845 845 845 845 845 844 844 843 843 843 842 842 841 839 838 837 836 835 833 832 829 829 828 827 826 825 825 824 824 824 824 824 824 824 824 824 823 823 823 823 822 821 819 818 817 815 814 813 812 811 809 808 808 807 807 806 806 805 805 803 803 803 802 801 801 800 799 798 797 797 796 795 794 793 792 791 790 789 788 787 786 785 785 784 784 784 783 782 782 782 782 781 781 781 781 780 780 780 779 779 778 778 777 777 776 775 774 774 773 772 772 771 770 770 770 770 770 770 769 769 768 767 766 765 764 763 761 760 758 756 755 754 752 751 749 747 746 745 744 742 741 740 739 738 737 737 736 736 735 735 735 734 734 734 734 734 734 734 734 734 734 734 734 733 733 732 732 731 731 730 729 728 728 727 726 725 725 724 723 722 721 720 720 719 719 718 718 717 716 716 716 716 715 716
0 0 0 0 0 0 0 0 0 0 0 0 0 0 0 0 0 0 0 0 0 0 0 0 0 0 0 0 0 0 0 0 0 0 0 0 0 0 0 0 0 705 705 706 706 707 709 710 712 715 716 717 717 717 716 715 715 712 709 707 705 702 701 698 697 695 694 693 692 692 691 0 0 0 0 0 0 0 0 0 0 0 0 0 0 0 0 0 0 0 0 0 0 0 0 0 0 0 0 0 0 0 0 0 0 0 0 0 0 0 0 0 0 0 0 275 276 275 275 275 276 276 276 275 275 275 275 0 0 0 0 0 0 0 0 0 0 0 0 0 0 0 0 0 0 0 0 0 0 0 0 0 0 0 0 0 0 0 0 0 0 0 0 0 0 0 0 0 0 0 0 0 0 0 0 0 0 0 0 0 0 0 0 0 0 0 0 0 0 0 0 0 0 0 0 0 0 0 0 0 0 0 0 0 0 0 0 0 0 0 0 0 0 0 0 0 0 0 0 0 0 0 0 0 0 0 0 0 0 0 0 0 0 263 263 263 263 0 0 0 0 0 0 0 0 0 0 0 0 0 0 0 266 267 0 0 0 0 0 0 276 278 280 281 282 282 282 283 283 284 284 285 285 286 287 289 290 291 292 294 295 296 297 297 298 298 299 299 300 300 301 301 301 302 0 0 359 360 361 362 362 364 365 366 368 369 371 372 373 0 0 0 0 0 0 0 0 0 0 0 0 0 0 0 0 0 0 0 0 0 313 313 312 312 312 311 311 310 309 308 307 306 305 304 0 302 302 301 301 300 300 300 300 300 299 299 299 299 299 298 298 298 298 298 298 298 298 298 298 298 298 298 298 298 298 298 298 299 299 299 299 300 300 300 300 300 300 300 301 301 301 302 302 303 303 304 304 305 305 306 306 307 307 307 308 308 308 0 0 0 0 859 858 859 860 860 860 862 862 862 862 862 862 862 860 860 859 858 858 857 856 856 854 853 853 852 851 850 849 849 847 846 846 845 845 845 845 845 845 845 845 845 844 844 844 843 843 842 841 839 839 838 836 835 834 832 830 829 828 827 826 825 825 824 824 824 823 823 823 823 823 823 823 822 822 822 821 821 819 818 816 815 814 813 812 811 810 808 807 807 807 807 806 805 805 803 803 802 802 801 800 800 799 798 797 796 795 795 794 793 792 791 790 788 787 787 786 785 784 783 783 783 782 782 782 781 781 781 780 780 780 779 779 779 779 778 778 777 777 776 775 775 774 774 773 773 772 772 771 771 771 771 770 770 770 770 769 768 767 766 765 763 761 760 758 756 755 754 753 751 750 748 747 745 745 743 742 740 739 738 738 737 737 736 735 735 735 735 734 734 734 735 735 734 734 735 735 734 734 734 734 733 733 732 731 731 730 729 728 727 726 725 725 724 723 722 721 720 719 719 718 717 717 716 716 716 716 716 715 716
0 0 0 0 0 0 0 0 0 0 0 0 0 0 0 0 0 0 0 0 0 0 0 0 0 0 0 0 0 0 0 0 0 0 0 0 0 0 0 0 0 0 703 704 706 707 708 710 711 715 716 718 718 718 717 716 715 712 710 706 704 702 700 698 695 694 692 691 691 690 689 0 0 0 0 0 0 0 0 0 0 0 0 0 0 0 0 0 0 0 0 0 0 0 0 0 0 0 0 0 0 0 0 0 0 0 0 0 0 0 0 0 0 0 0 275 275 275 275 275 275 275 275 275 275 275 275 0 0 0 0 0 0 0 0 0 0 0 0 0 0 0 0 0 0 0 0 0 0 0 0 0 0 0 0 0 0 0 0 0 0 0 0 0 0 0 0 0 0 0 0 0 0 0 0 0 0 0 0 0 0 0 0 0 0 0 0 0 0 0 0 0 0 0 0 0 0 0 0 0 0 0 0 0 0 0 0 0 0 0 0 0 0 0 0 0 0 0 0 0 0 0 0 0 0 0 0 0 0 0 0 0 263 263 263 263 263 263 0 0 0 0 0 0 0 0 0 0 0 0 0 265 266 267 0 267 268 0 0 0 0 278 279 281 281 282 282 283 283 284 284 285 285 286 287 289 290 291 292 293 295 296 296 297 298 298 299 299 300 300 300 301 301 0 0 0 358 360 360 361 362 363 365 367 368 370 371 0 0 0 0 0 0 0 0 0 0 0 0 0 0 0 0 0 0 0 0 0 0 0 313 313 312 312 311 311 311 310 309 308 307 307 306 305 304 303 302 302 301 301 300 300 300 300 300 299 299 299 299 299 299 299 299 298 298 298 298 298 298 298 298 298 298 298 298 298 299 299 299 299 299 300 300 300 300 300 300 301 301 301 302 302 302 303 304 304 305 305 306 306 307 307 307 307 308 308 308 309 0 0 0 859 859 860 860 860 862 862 862 862 862 862 862 862 860 860 859 858 858 857 856 856 854 854 853 852 851 851 850 849 847 847 846 846 845 845 845 845 845 845 845 845 845 844 844 844 843 842 842 841 839 838 837 836 834 833 830 829 828 827 826 825 825 824 823 823 823 823 823 823 823 822 822 822 821 821 821 819 818 817 816 815 814 813 812 811 810 809 808 807 807 807 806 806 805 803 803 802 802 801 800 799 799 798 797 796 795 795 794 793 792 791 790 788 787 786 785 784 784 783 782 782 781 781 780 780 780 779 779 779 779 779 778 778 778 777 777 776 776 776 775 775 775 774 774 773 773 773 772 772 771 771 770 770 770 770 769 768 767 766 764 763 761 760 758 757 755 754 753 752 751 749 748 746 745 744 743 741 740 739 738 737 737 737 736 736 735 735 735 735 735 735 735 735 735 735 736 735 735 735 735 734 734 733 732 731 731 730 729 728 727 726 725 724 723 722 721 719 719 719 718 717 717 716 716 716 716 716 715 715
0 0 0 0 0 0 0 0 0 0 0 0 0 0 0 0 0 0 0 0 0 0 0 0 0 0 0 0 0 0 0 0 0 0 0 0 0 0 0 0 0 0 702 703 705 706 707 710 711 714 715 717 718 717 717 715 715 714 710 707 704 702 699 697 694 693 691 690 689 688 688 0 0 0 0 0 0 0 0 0 0 0 0 0 0 0 0 0 0 0 0 0 0 0 0 0 0 0 0 0 0 0 0 0 0 0 0 0 0 0 0 0 0 0 0 274 274 274 274 274 274 274 274 274 274 274 0 0 0 0 0 0 0 0 0 0 0 0 0 0 0 0 0 0 0 0 0 0 0 0 0 0 0 0 0 0 0 0 0 0 0 0 0 0 0 0 0 0 0 0 0 0 0 0 0 0 0 0 0 0 0 0 0 0 0 0 0 0 0 0 0 0 0 0 0 0 0 0 0 0 0 0 0 0 0 0 0 0 0 0 0 0 0 0 0 0 0 0 0 0 0 0 0 0 0 0 0 0 0 0 0 0 263 263 263 263 263 263 263 263 263 262 261 261 261 0 0 261 262 0 264 265 266 266 267 267 268 269 0 0 0 277 279 280 281 282 282 283 283 284 284 285 285 287 288 289 290 291 292 294 295 296 296 297 297 298 298 299 300 300 300 301 0 0 0 0 358 359 360 361 362 363 365 367 369 370 372 373 374 375 376 378 0 0 0 0 0 0 0 0 0 0 0 0 0 0 0 0 0 0 0 312 312 312 311 311 310 310 309 308 307 307 306 305 304 304 303 302 302 301 301 301 300 300 300 300 300 299 299 299 299 299 299 299 299 299 299 298 298 298 298 298 298 298 298 299 299 299 299 299 300 300 300 300 300 300 301 301 301 301 302 302 303 304 304 304 305 305 306 306 307 307 307 307 308 308 309 309 0 0 0 859 859 860 860 860 862 862 862 862 862 862 862 862 860 860 859 859 858 857 857 856 856 854 854 853 852 851 850 850 849 847 847 846 846 846 846 846 846 846 845 845 845 844 844 844 843 843 842 841 839 839 838 836 835 833 832 830 829 827 827 825 825 824 823 823 823 822 822 822 822 822 821 821 819 821 819 818 818 817 816 815 814 813 812 811 810 809 809 808 807 807 807 806 806 805 803 802 802 801 800 799 799 798 797 796 795 795 794 793 792 790 790 788 787 786 785 784 783 782 781 781 781 781 780 779 779 779 778 778 778 778 777 777 777 776 776 776 775 775 774 774 774 774 774 774 773 773 772 772 772 771 771 770 770 769 769 768 766 765 764 762 761 759 758 756 755 754 753 752 751 750 748 747 745 745 744 743 741 740 739 738 737 737 737 736 736 736 736 736 736 736 736 736 736 736 736 736 736 735 735 735 734 733 732 731 731 730 729 728 727 726 725 724 723 722 720 719 719 718 717 716 716 716 716 716 715 715 715 715
0 0 0 0 0 0 0 0 0 0 0 0 0 0 0 0 0 0 0 0 0 0 0 0 0 0 0 0 0 0 0 0 0 0 0 0 0 0 0 0 0 0 702 702 704 706 707 709 710 714 715 716 717 717 716 715 714 713 709 706 703 701 699 697 694 692 691 689 688 688 688 688 0 0 0 0 0 0 0 0 0 0 0 0 0 722 0 0 0 0 0 0 0 0 0 0 0 0 0 0 0 0 0 0 0 0 0 0 0 0 0 0 0 0 0 0 274 274 274 274 274 274 274 274 274 0 0 0 0 0 0 0 0 0 0 0 0 0 0 0 0 0 0 0 0 0 0 0 0 0 0 0 0 0 0 0 0 0 0 0 0 0 0 0 0 0 0 0 0 0 0 0 0 0 0 0 0 0 0 0 0 0 0 0 0 0 0 0 0 0 0 0 0 0 0 0 0 0 0 0 0 0 0 0 0 0 0 0 0 0 0 0 0 0 0 0 0 0 0 0 0 0 0 0 0 0 0 0 0 0 0 0 263 263 263 263 263 263 263 263 262 261 261 260 0 0 261 261 261 262 263 264 265 266 266 267 267 269 271 0 0 276 278 280 281 282 282 283 283 284 284 285 286 287 288 289 290 291 292 294 295 295 296 297 297 298 298 299 299 300 300 0 0 0 0 0 358 358 360 361 362 363 365 0 0 370 372 374 374 375 377 0 0 0 0 0 0 0 0 0 0 0 0 0 0 0 0 0 0 0 0 0 312 312 311 311 310 309 309 308 308 0 306 305 305 304 303 303 302 301 301 301 301 300 300 300 300 300 300 299 299 299 299 299 299 299 299 299 299 298 298 298 299 299 299 299 299 299 299 300 300 300 300 300 301 301 301 301 302 302 302 303 303 304 304 305 305 306 306 307 307 307 307 308 309 309 309 310 0 0 0 860 860 860 862 862 862 863 863 863 863 863 862 862 860 860 859 859 858 857 857 856 856 854 854 853 852 852 851 850 849 849 847 847 847 847 847 847 846 846 846 845 845 845 844 844 844 843 842 842 841 839 838 837 835 834 832 830 829 828 827 826 825 824 823 823 822 822 822 821 821 821 819 819 818 819 818 818 817 816 816 815 814 814 813 812 812 811 810 809 809 808 807 806 806 805 805 803 802 801 800 799 799 798 797 796 795 795 794 793 792 791 790 788 787 786 785 784 783 782 781 781 781 780 780 779 778 778 777 777 777 776 776 776 775 775 775 774 774 774 774 774 774 774 773 773 773 772 772 772 771 771 770 770 770 769 768 767 766 764 763 761 760 759 757 756 755 754 753 752 751 750 749 748 746 745 744 743 742 740 739 739 738 737 737 737 737 737 737 737 736 736 736 737 737 737 736 736 736 736 735 735 734 733 733 732 731 731 729 728 727 726 725 724 723 721 720 719 719 718 717 716 715 716 716 715 716 716 715 715
0 0 0 0 0 0 0 0 0 0 0 0 0 0 0 0 0 0 0 0 0 0 0 0 0 0 0 0 0 0 0 0 0 0 0 0 0 0 0 0 0 0 702 702 705 706 707 708 710 713 715 715 716 716 715 715 714 711 709 706 703 701 699 697 694 693 691 690 689 689 688 689 690 691 693 695 0 0 0 0 711 714 717 719 721 724 726 728 729 0 0 0 0 0 0 0 0 0 0 0 0 0 0 0 0 0 0 0 0 0 0 0 0 0 0 0 0 0 0 0 273 273 273 0 0 0 0 0 0 0 0 0 0 0 0 0 0 0 0 0 0 0 0 0 0 0 0 0 0 0 0 0 0 0 0 0 0 0 0 0 0 0 0 0 0 0 0 0 0 0 0 0 0 0 0 0 0 0 0 0 0 0 0 0 0 0 0 0 0 0 0 0 0 0 0 0 0 0 0 0 0 0 0 0 0 0 0 0 0 0 0 0 0 0 0 0 0 0 0 0 0 0 0 0 0 0 0 0 0 0 0 0 263 263 263 263 263 263 263 262 262 261 260 260 0 0 260 261 261 262 263 264 265 266 266 267 267 269 270 271 0 0 0 0 280 281 282 283 283 284 284 285 286 287 288 289 290 291 292 294 295 295 296 296 297 297 298 298 299 299 0 0 0 0 0 0 357 358 360 360 362 363 365 0 0 371 373 374 375 376 377 378 379 0 0 0 0 0 0 0 0 0 0 0 0 0 0 0 0 0 0 0 0 312 311 311 310 309 309 308 307 307 306 305 305 304 0 0 302 302 301 301 301 300 300 300 300 300 300 300 300 299 299 299 299 299 299 299 299 299 299 299 299 299 299 299 299 299 300 300 300 300 300 300 301 301 301 302 302 302 303 303 304 304 305 305 305 306 306 307 307 307 308 308 308 309 309 0 0 0 0 860 860 862 862 862 863 864 864 864 863 863 863 862 862 860 860 859 858 858 857 857 856 856 854 854 853 852 852 851 850 850 849 849 849 847 847 847 846 846 846 845 845 845 844 844 844 843 843 842 842 841 839 838 836 835 834 832 830 828 827 826 825 824 823 822 821 821 821 821 819 819 818 818 818 818 817 817 816 816 816 815 815 815 814 813 813 812 811 810 809 809 808 807 806 806 805 803 802 801 800 800 799 798 797 797 796 795 794 793 792 791 790 788 787 786 785 784 783 782 781 781 781 780 780 779 778 777 776 777 776 776 775 775 775 774 774 774 774 774 773 773 773 774 773 773 773 773 772 772 771 770 770 769 769 768 767 766 765 763 762 761 759 758 757 756 755 754 753 753 752 751 750 748 747 746 745 744 742 741 740 739 738 738 737 737 737 737 737 737 737 737 737 737 737 737 737 736 736 736 735 734 734 733 732 731 731 730 729 728 727 726 725 724 723 722 720 719 719 718 717 716 716 715 716 716 716 716 716 716
0 0 0 0 0 0 0 0 0 0 0 0 0 0 0 0 0 0 0 0 0 0 0 0 0 0 0 0 0 0 0 0 0 0 0 0 0 0 0 0 0 0 702 703 705 706 707 709 711 713 715 715 715 715 715 714 712 711 709 706 703 702 699 698 695 694 692 691 691 690 690 690 691 692 694 696 699 702 705 709 713 715 718 721 723 725 728 730 731 731 733 0 0 0 0 0 0 0 0 0 0 0 0 0 0 0 0 0 0 0 0 0 0 0 0 0 0 0 0 0 0 0 0 0 0 0 0 0 0 0 0 0 0 0 0 0 0 0 0 0 0 0 0 0 0 0 0 0 0 0 0 0 0 0 0 0 0 0 0 0 0 0 0 0 0 0 0 0 0 0 0 0 0 0 0 0 0 0 0 0 0 0 0 0 0 0 0 0 0 0 0 0 0 0 0 0 0 0 0 0 0 0 0 0 0 0 0 0 0 0 0 0 0 0 0 0 0 0 0 0 0 0 0 0 0 0 0 0 0 0 0 0 264 264 264 263 263 263 262 261 0 0 0 0 260 260 260 261 0 0 263 264 265 266 266 267 267 268 270 271 272 0 0 278 280 281 282 283 283 284 284 285 286 287 288 289 290 292 293 294 295 295 296 296 297 297 297 298 298 0 0 0 0 0 0 356 357 358 360 360 362 363 365 367 369 371 373 374 375 376 377 378 0 0 0 0 0 0 0 0 0 0 0 0 0 0 0 0 0 0 0 0 0 0 0 0 0 309 308 307 307 306 306 305 305 304 304 303 302 302 301 301 301 301 300 300 300 300 300 300 300 300 300 300 299 299 299 299 299 299 299 299 299 299 299 299 299 300 300 300 300 300 300 301 301 301 301 302 302 303 303 304 304 304 305 305 306 306 306 307 307 308 308 308 308 308 308 0 0 0 0 862 862 863 863 863 864 864 864 864 864 864 863 863 862 860 860 859 859 858 857 857 857 856 856 854 854 853 852 852 851 851 850 849 849 847 847 846 846 846 846 845 845 845 845 844 844 844 843 843 842 841 839 838 837 836 834 833 830 829 827 826 825 824 823 822 821 819 819 819 818 818 818 817 817 817 817 816 816 816 816 815 815 815 814 813 813 812 812 811 811 810 809 808 807 806 805 803 803 802 801 800 800 799 798 797 796 796 795 794 793 792 790 789 788 787 785 784 783 782 781 781 781 780 779 779 778 777 776 776 775 775 774 774 774 773 773 773 773 773 773 773 773 773 773 773 772 772 771 771 770 770 770 769 768 767 766 765 764 762 761 760 758 757 756 755 755 754 754 753 753 752 750 749 748 746 745 745 743 741 741 739 738 738 738 737 737 737 737 737 737 737 737 737 737 737 737 736 736 735 735 734 734 733 732 731 731 730 729 728 727 726 725 724 723 722 721 719 719 718 718 717 717 716 716 717 717 717 716 717
0 0 0 0 0 0 0 0 0 0 0 0 0 0 0 0 0 0 0 0 0 0 0 0 0 0 0 0 0 0 0 0 0 0 0 0 0 0 0 0 0 0 704 705 706 706 708 710 711 713 715 715 715 715 715 714 713 710 709 706 704 702 700 698 697 694 693 692 691 691 691 691 692 694 695 698 701 704 707 711 715 718 720 724 725 728 730 731 732 733 735 736 737 0 0 0 0 0 0 0 0 0 0 0 0 0 0 0 0 0 0 0 0 0 0 0 0 0 0 0 0 0 0 0 0 0 0 0 0 0 0 0 0 0 0 0 0 0 0 0 0 0 0 0 0 0 0 0 0 0 0 0 0 0 0 0 0 0 0 0 0 0 0 0 0 0 0 0 0 0 0 0 0 0 0 0 0 0 0 0 0 0 0 0 0 0 0 0 0 0 0 0 0 0 0 0 0 0 0 0 0 0 0 0 0 0 0 0 0 0 0 0 0 0 0 0 0 0 0 0 0 0 0 0 0 0 0 0 0 0 0 0 0 263 263 263 262 261 0 0 0 0 259 259 259 260 260 261 261 262 263 264 265 265 266 267 267 268 269 270 271 0 0 0 0 280 281 282 283 283 284 284 285 287 288 289 290 291 293 294 295 295 295 296 296 297 297 297 0 0 0 0 0 0 355 356 357 358 359 360 362 364 365 367 369 371 373 375 375 376 377 378 0 0 0 0 0 0 0 0 0 0 0 0 0 0 0 0 0 0 0 0 0 0 0 0 0 0 308 307 307 307 306 305 305 305 304 303 303 302 302 302 301 301 301 300 300 300 300 300 300 300 300 300 300 300 299 299 299 299 299 299 299 299 299 299 299 300 300 300 300 300 301 301 301 301 302 302 303 303 304 304 304 305 305 305 306 306 306 307 307 308 308 308 309 308 309 0 320 0 0 863 863 863 864 864 865 865 865 865 865 864 864 863 863 862 860 860 859 858 858 857 857 857 856 856 854 854 853 853 852 851 851 850 849 849 847 847 846 845 845 845 844 844 844 844 844 844 844 843 843 842 841 839 838 837 835 834 832 829 828 826 824 823 822 821 821 819 818 818 818 818 817 817 817 816 816 816 816 816 816 815 815 815 814 814 813 813 813 812 811 810 809 808 808 806 806 805 803 802 801 801 800 799 798 797 797 796 795 794 793 792 791 790 789 787 786 785 784 783 782 781 781 780 779 779 778 777 776 775 775 774 774 773 773 773 773 773 772 772 772 772 772 773 773 772 772 772 771 770 770 770 768 768 767 766 765 764 762 761 760 759 758 757 756 755 755 755 754 754 753 752 751 750 749 747 745 745 744 742 741 740 739 738 738 738 737 737 737 737 737 737 737 737 737 736 736 736 735 735 734 733 733 732 731 731 731 730 729 728 727 726 725 724 723 722 721 720 719 719 718 717 717 717 717 717 717 717 717 718
0 0 0 0 0 0 0 0 0 0 0 0 0 0 0 0 0 0 0 0 0 0 0 0 0 0 0 0 0 0 0 0 0 0 0 0 0 0 0 0 0 0 706 706 706 708 709 710 711 713 715 715 715 715 715 714 713 711 709 707 705 703 702 700 698 697 695 694 694 693 694 694 694 696 698 700 703 706 710 713 717 719 723 725 727 730 731 733 734 735 737 737 738 740 742 744 745 0 0 0 0 0 0 0 0 0 0 0 0 0 0 0 0 0 0 0 0 0 0 0 0 0 0 0 0 0 0 0 0 0 0 0 0 0 0 0 0 0 0 0 0 0 0 0 0 0 0 0 0 0 0 0 0 0 0 0 0 0 0 0 0 0 0 0 0 0 0 0 0 0 0 0 0 0 0 0 0 0 0 0 0 0 0 0 0 0 0 0 0 0 0 0 0 0 0 0 0 0 0 0 0 0 0 0 0 0 0 0 0 0 0 0 0 0 0 0 0 0 0 0 0 0 0 0 0 0 0 0 0 0 0 0 0 0 0 262 261 0 0 0 0 258 258 258 259 259 260 260 261 261 262 263 264 265 266 266 267 268 269 270 271 272 274 0 0 0 281 282 283 283 283 284 285 286 287 289 290 292 293 294 295 295 295 296 296 296 297 0 0 297 0 0 0 354 355 355 356 358 359 360 362 364 365 367 369 371 373 375 376 376 377 378 0 0 0 0 0 0 0 0 0 0 0 0 0 0 0 0 0 0 0 0 0 0 0 0 0 0 0 0 307 307 306 306 305 305 304 304 303 302 302 302 301 301 301 301 300 300 300 300 300 300 300 300 300 300 300 300 299 299 299 299 299 299 299 300 300 300 300 300 300 301 301 301 301 302 302 302 303 303 304 304 304 305 305 305 306 306 306 307 307 308 308 308 309 309 308 0 0 0 0 863 863 864 864 864 865 865 865 865 865 865 864 864 863 862 862 860 859 859 858 858 858 857 857 857 856 856 854 853 853 852 851 850 850 849 847 846 846 845 844 844 844 844 844 844 844 844 844 844 844 843 842 841 839 838 837 835 833 830 828 826 825 823 822 821 819 818 818 818 817 817 817 816 816 816 816 816 816 816 815 815 815 815 814 813 813 813 812 812 811 810 810 808 808 807 806 805 803 802 801 800 800 799 798 797 796 796 796 795 794 793 792 790 790 788 787 786 785 784 783 782 782 781 780 779 778 777 776 775 775 774 773 773 772 772 772 772 772 771 772 772 772 772 772 771 771 771 770 770 770 769 768 767 766 765 764 763 762 761 760 759 758 757 756 755 755 755 755 754 753 752 752 751 749 748 746 745 744 743 741 740 739 739 738 738 738 738 737 737 737 737 737 737 737 736 736 735 735 734 734 733 732 731 731 731 730 729 728 728 727 726 725 725 724 722 721 721 720 719 719 719 719 719 719 719 719 719 719 719
0 0 0 0 0 0 0 0 0 0 0 0 0 0 0 0 0 0 0 0 0 0 0 0 0 0 0 0 0 0 0 0 0 0 0 0 0 715 0 0 0 0 708 708 709 710 710 710 712 713 714 715 715 715 715 714 712 711 709 707 705 703 702 701 699 698 697 696 695 695 695 696 697 698 699 702 704 707 710 715 719 722 724 727 731 732 734 736 737 738 739 740 741 743 744 745 746 747 0 0 0 0 0 0 0 0 0 0 0 0 0 0 0 0 0 0 0 0 0 0 0 0 0 0 0 0 0 0 0 0 0 0 0 0 0 0 0 0 0 0 0 0 0 0 0 0 0 0 0 0 0 0 0 0 0 0 0 0 0 0 0 0 0 0 0 0 0 0 0 0 0 0 0 0 0 0 0 0 0 0 0 0 0 0 0 0 0 0 0 0 0 0 0 0 0 0 0 0 252 252 252 251 0 0 0 0 0 0 0 0 0 0 0 0 0 0 0 0 0 0 0 0 0 0 0 0 0 0 0 0 0 0 0 0 0 0 0 0 0 0 257 257 258 258 258 259 259 260 261 261 262 263 264 265 266 266 267 268 269 270 271 272 274 0 0 279 281 281 282 282 283 284 284 286 287 289 290 292 293 294 295 295 295 296 296 296 0 0 0 0 0 0 0 354 354 355 356 357 359 360 362 364 365 367 369 371 373 375 376 377 378 378 0 0 0 0 0 0 0 0 0 0 0 0 0 0 0 0 0 0 0 0 0 0 0 0 0 0 0 0 307 307 306 306 305 305 304 304 303 303 302 302 302 301 301 301 301 301 300 300 300 300 300 300 300 300 300 300 300 300 300 299 300 300 300 300 300 300 300 300 300 301 301 301 301 302 302 303 303 304 304 304 305 305 305 305 306 306 306 307 307 307 308 308 309 309 309 0 0 0 0 863 863 864 864 864 866 866 866 866 866 866 865 864 864 863 863 862 860 860 859 859 859 858 858 857 857 857 856 854 853 853 852 851 850 849 847 846 845 844 844 843 843 844 844 844 844 845 844 844 844 844 843 842 841 839 838 836 834 832 829 827 825 823 822 819 819 818 818 817 817 817 816 816 816 816 816 816 816 816 816 815 815 814 814 813 813 812 812 811 811 810 809 808 808 806 806 805 803 802 802 801 800 799 799 798 797 797 796 795 794 793 792 791 790 789 788 787 786 785 784 783 783 782 781 780 779 778 777 776 775 774 773 772 772 772 772 772 772 771 771 771 771 772 771 771 771 770 770 770 769 768 767 766 766 765 764 763 762 761 760 759 758 757 756 755 755 755 755 754 754 753 752 751 750 748 747 745 745 743 741 741 740 739 738 738 738 738 738 737 737 737 737 736 736 736 735 734 734 734 733 732 732 731 731 730 730 729 728 728 727 726 725 725 724 723 723 722 721 720 720 719 719 719 719 719 719 719 719 719
0 0 0 0 0 0 0 0 0 0 0 0 0 0 0 0 0 0 0 0 0 0 0 0 0 0 0 0 0 0 0 0 0 0 0 0 0 718 715 0 0 711 710 710 710 710 710 711 712 713 713 714 714 714 714 712 711 710 710 707 706 704 703 702 701 700 699 698 698 698 698 698 698 701 702 0 0 0 713 717 719 724 726 730 732 736 737 739 739 741 741 742 744 744 745 746 746 748 749 0 0 0 0 0 0 0 0 0 0 0 0 0 0 0 0 0 0 0 0 0 0 0 0 0 0 0 0 0 0 0 0 0 0 0 0 0 0 0 0 0 0 0 0 0 0 0 0 0 0 0 0 0 0 0 0 0 0 0 0 0 0 0 0 0 0 0 0 0 0 0 0 0 0 0 0 0 0 0 0 0 0 0 0 0 0 0 0 0 0 0 0 0 0 0 252 252 251 251 251 251 251 251 251 250 250 250 0 0 0 0 0 0 0 0 0 0 0 0 0 0 0 0 0 0 0 0 0 0 0 0 0 0 0 0 0 0 0 0 0 255 255 256 257 257 258 258 259 260 260 261 261 262 263 264 265 266 267 268 269 270 271 272 273 275 277 279 280 281 281 282 282 283 284 285 287 288 290 291 293 295 295 295 295 296 296 296 296 296 0 0 0 0 0 353 354 354 356 357 359 360 362 364 366 368 370 371 373 375 376 377 378 378 379 0 0 0 0 0 0 0 0 0 0 0 0 0 0 0 0 0 0 0 0 0 0 0 0 0 0 0 0 307 307 306 305 305 305 304 304 303 303 302 302 302 301 301 301 301 301 301 300 300 300 300 300 300 300 300 300 300 300 300 300 300 300 300 300 300 300 300 301 301 301 301 302 302 302 303 303 304 304 305 305 305 305 306 306 306 306 307 307 307 308 308 309 309 311 0 0 0 0 863 863 864 864 864 866 868 868 868 868 866 866 865 864 864 863 863 862 862 860 859 859 859 859 858 858 857 857 856 854 853 853 851 850 849 847 845 845 844 843 843 843 843 844 844 844 845 844 845 845 845 844 843 842 841 839 837 835 833 829 827 825 823 822 819 819 818 817 817 817 817 816 816 816 816 817 817 817 816 816 816 815 814 814 813 812 812 811 811 810 809 808 807 807 806 805 803 802 801 801 801 800 799 799 798 798 797 796 796 795 794 793 792 791 790 789 788 787 786 785 784 784 783 782 780 779 778 777 776 775 774 773 773 773 772 772 772 772 772 772 772 772 772 771 771 771 770 770 770 769 768 767 766 765 764 763 762 761 760 760 759 758 757 756 756 755 755 755 755 754 754 753 752 751 749 747 746 745 744 742 741 740 739 739 739 738 738 738 737 737 737 737 736 736 735 735 734 733 733 733 732 731 731 731 730 729 729 728 728 727 726 725 725 725 724 724 723 722 722 721 721 720 720 720 720 720 721 720 721
0 0 0 0 0 0 0 0 0 0 0 0 0 0 0 0 0 0 0 0 0 0 0 0 0 0 0 0 0 0 0 0 0 0 0 0 0 720 717 715 714 713 713 712 711 712 711 712 713 713 714 714 714 713 713 713 712 710 709 708 707 706 704 703 702 702 701 700 700 700 700 701 701 702 704 706 709 712 715 719 723 725 729 731 735 737 739 741 742 743 743 745 745 745 745 747 747 748 749 750 0 0 0 0 0 0 0 0 0 0 0 0 0 0 0 0 0 0 0 0 0 0 0 0 0 0 0 0 0 0 0 0 0 0 0 0 0 0 0 0 0 0 0 0 0 0 0 0 0 0 0 0 0 0 0 0 0 0 0 0 0 0 0 0 0 0 0 0 0 0 0 0 0 0 0 0 0 0 0 0 0 0 0 0 0 0 0 0 0 0 0 0 250 250 250 250 250 250 250 250 250 250 250 250 249 250 249 249 0 0 0 0 0 0 0 0 0 0 0 0 0 0 0 0 246 246 246 0 0 246 0 0 0 0 0 0 0 250 253 254 255 256 257 257 258 259 259 260 260 261 261 262 263 264 265 266 267 268 269 270 271 272 273 275 0 278 279 280 281 282 282 283 284 285 286 0 0 0 0 295 295 295 296 296 296 296 296 0 0 0 0 0 0 352 353 354 355 357 359 360 362 364 366 368 370 372 373 375 376 377 378 378 379 0 0 0 0 0 0 0 0 0 0 0 0 0 0 0 0 0 0 0 0 0 0 0 0 0 0 308 308 307 307 306 306 305 305 305 304 304 303 303 302 302 302 302 301 301 301 301 301 301 301 301 300 300 300 300 300 300 300 300 300 300 300 300 300 300 300 301 301 301 301 301 302 302 303 303 303 304 304 305 305 305 305 306 306 306 307 307 307 308 308 308 309 310 311 0 0 0 0 863 863 864 865 865 866 868 868 868 868 868 866 866 865 865 864 864 863 862 862 860 860 859 859 858 858 858 857 857 856 854 853 851 850 849 846 846 845 844 843 843 843 843 844 844 844 845 845 845 845 845 845 844 843 842 841 838 836 833 830 828 825 824 822 819 819 818 818 818 817 817 817 817 817 817 817 817 817 817 817 816 815 814 814 813 812 811 810 810 809 808 807 806 805 805 803 803 802 801 801 800 800 800 799 798 798 797 797 796 795 795 794 793 792 791 790 789 788 788 786 785 784 783 782 781 780 779 778 776 776 775 774 773 773 773 773 773 772 772 772 772 772 772 772 771 771 770 770 770 769 768 767 766 765 764 763 762 761 760 760 759 758 757 757 757 756 755 755 755 755 754 754 753 752 750 748 747 745 745 743 742 741 740 739 739 739 738 738 737 737 737 736 736 736 735 734 734 733 733 732 732 731 731 730 730 729 729 728 728 727 726 726 725 725 725 724 723 723 722 722 721 721 721 721 721 721 721 721 721
0 0 0 0 0 0 0 0 0 0 0 0 0 0 0 0 0 0 0 0 0 0 0 0 0 0 0 0 0 0 0 0 0 0 0 0 0 720 718 716 715 715 715 714 714 714 714 714 715 715 715 715 714 714 715 714 713 712 710 710 709 707 707 705 704 703 703 702 702 702 702 702 703 704 706 708 711 715 719 722 725 728 731 733 737 739 741 742 743 744 745 745 745 746 746 747 748 748 749 0 0 0 0 0 0 0 0 0 0 0 0 0 0 0 0 0 0 0 0 0 0 0 0 0 0 0 0 0 0 0 0 0 0 0 0 0 0 0 0 0 0 0 0 0 0 0 0 0 0 0 0 0 0 0 0 0 0 0 0 0 0 0 0 0 0 0 0 0 0 0 0 0 0 0 0 0 0 0 0 0 0 0 0 0 0 0 0 0 0 0 0 0 249 249 250 250 250 250 250 250 249 249 249 249 249 249 249 248 248 0 0 0 0 0 0 0 0 0 0 0 0 0 246 246 246 246 246 246 0 245 0 0 0 0 0 0 247 249 0 0 254 255 257 258 258 259 259 259 260 260 261 262 263 263 264 266 267 268 269 270 271 272 0 0 0 277 279 280 281 281 282 282 283 284 286 0 0 291 292 295 295 295 295 0 0 0 0 0 0 0 0 0 351 352 353 354 355 357 359 360 362 364 366 369 370 371 373 375 376 377 378 378 379 0 0 0 0 0 0 0 0 0 0 0 0 0 0 0 0 0 0 0 0 0 0 0 311 310 309 309 309 308 307 307 306 306 305 305 304 304 304 303 303 303 302 302 302 302 301 301 301 301 301 301 301 301 300 300 300 300 300 300 300 300 300 300 300 301 301 301 301 301 301 302 302 302 303 303 304 304 304 305 305 305 306 306 306 307 307 307 308 308 308 309 0 310 313 0 0 0 0 863 863 864 865 865 866 866 868 868 868 868 868 866 866 865 865 864 864 863 862 862 860 860 859 859 858 858 857 856 856 854 853 852 851 849 847 846 845 844 843 843 843 844 844 844 845 845 846 846 846 846 845 845 844 843 841 838 836 833 830 828 826 824 822 821 819 818 818 818 818 818 818 818 818 818 818 818 818 818 817 817 816 815 814 813 812 811 810 809 808 807 806 806 805 803 802 802 801 801 801 800 800 800 799 798 798 798 797 796 796 795 794 793 792 792 791 790 789 788 787 787 786 784 783 782 780 779 778 777 776 775 775 774 774 774 773 773 772 772 772 772 772 772 771 771 771 770 770 770 769 768 767 766 765 764 764 763 762 761 760 760 759 758 758 757 756 756 755 755 755 755 754 753 752 750 749 747 746 745 744 742 741 740 740 739 739 738 738 737 737 737 736 736 736 735 734 733 733 733 732 731 731 731 730 730 729 729 728 728 727 727 726 725 725 725 725 724 723 722 722 722 722 722 722 721 722 722 721 722
0 0 0 0 0 0 0 0 0 0 0 0 0 0 0 0 0 0 0 0 0 0 0 0 0 0 0 0 0 0 0 0 0 0 0 0 0 720 719 718 717 717 717 716 716 716 716 716 716 716 716 716 716 715 715 715 715 714 714 713 712 711 710 708 707 706 705 704 703 703 703 704 705 706 707 710 714 718 721 725 727 731 732 734 737 740 742 743 745 745 745 745 746 748 748 748 749 750 751 0 0 0 0 0 0 0 0 0 0 0 0 0 0 0 0 0 0 0 0 0 0 0 0 0 0 0 0 0 0 0 0 0 0 0 0 0 0 0 0 0 0 0 0 0 0 0 0 0 0 0 0 0 0 0 0 0 0 0 0 0 0 0 0 0 0 0 0 0 0 0 0 0 0 0 0 0 0 0 0 0 0 0 0 0 0 0 0 0 0 0 0 0 248 248 249 249 249 249 249 249 249 249 249 249 249 248 248 248 248 0 0 0 0 0 0 0 0 0 0 0 0 246 246 246 246 246 245 245 245 245 245 245 245 0 246 246 247 248 0 0 253 255 257 257 258 259 259 259 260 260 261 261 262 263 264 265 267 268 269 270 271 272 0 0 276 277 279 280 281 281 282 282 283 284 285 0 0 290 292 294 0 295 0 0 0 0 0 0 0 0 0 0 351 352 353 354 355 357 359 361 363 365 367 369 370 372 373 375 376 377 378 378 379 0 0 0 0 0 0 0 0 0 0 0 0 0 0 0 0 0 0 0 0 0 0 312 311 311 310 309 0 308 308 307 306 306 306 305 305 304 304 304 303 303 303 302 302 302 302 302 301 301 301 301 301 301 301 301 301 301 301 301 300 300 300 301 301 301 301 301 301 301 301 302 302 302 303 303 304 304 304 305 305 305 306 306 307 307 307 308 308 308 309 309 310 0 312 0 0 0 0 863 863 864 865 865 866 866 868 868 868 868 868 868 866 866 865 865 864 863 863 862 862 862 860 859 859 858 858 857 856 854 853 852 850 849 847 846 845 844 844 843 843 844 844 845 845 845 846 846 846 846 845 845 844 843 842 838 836 834 832 828 826 825 823 821 821 819 819 819 818 819 819 819 819 819 819 819 819 819 818 818 816 815 814 813 812 810 810 809 807 806 805 803 803 803 802 802 801 800 800 800 800 799 799 799 798 798 797 797 796 795 794 794 793 792 791 791 790 789 788 787 786 785 784 782 781 780 779 778 777 776 775 775 774 774 774 774 773 772 772 772 771 771 771 770 770 770 770 769 768 767 767 766 766 765 764 763 762 762 761 760 759 758 758 757 757 756 756 755 755 755 755 754 752 751 750 748 746 745 744 743 742 741 740 740 739 738 738 737 737 737 737 736 735 735 734 734 733 733 732 731 731 731 730 730 729 729 728 728 727 727 726 725 725 725 725 724 723 723 722 722 721 721 721 721 721 722 721 722
0 0 0 0 0 0 0 0 0 0 0 0 0 0 0 0 0 0 0 0 0 0 0 0 0 0 0 0 0 0 0 0 0 0 0 0 0 721 720 719 719 719 719 719 718 719 719 718 718 718 718 718 718 718 718 718 717 717 717 716 716 715 714 712 711 710 708 707 706 705 705 706 706 707 709 712 715 719 724 727 730 732 734 737 738 741 742 743 744 745 745 746 747 748 748 749 749 750 751 0 0 0 0 0 0 0 0 0 0 0 0 0 0 0 0 0 0 0 0 0 0 0 0 0 0 0 0 0 0 0 0 0 0 0 0 0 0 0 0 0 0 0 0 0 0 0 0 0 0 0 0 0 0 0 0 0 0 0 0 0 0 0 0 0 0 0 0 0 0 0 0 0 0 0 0 0 0 0 0 0 0 0 0 0 0 0 0 0 0 0 0 0 0 0 0 248 249 248 249 248 248 248 248 248 248 248 248 248 248 0 0 0 0 0 0 0 0 0 0 0 246 246 246 246 245 245 245 245 245 245 245 245 245 245 246 246 247 248 249 0 253 0 256 257 258 259 259 259 260 260 261 261 262 263 264 265 266 268 269 270 271 272 273 275 276 278 279 280 281 282 282 283 283 284 285 0 0 0 0 0 0 0 0 0 0 0 0 0 0 0 348 349 350 351 352 353 355 357 359 361 363 365 367 369 371 372 374 375 377 377 378 379 379 0 0 0 0 0 0 0 0 0 0 0 0 0 0 0 0 0 0 0 0 0 0 0 312 311 310 310 310 309 308 308 307 307 306 306 305 305 305 304 304 304 303 303 303 302 302 302 302 302 301 301 301 301 301 301 301 301 301 301 301 301 301 301 301 301 301 301 301 301 302 302 302 303 303 303 304 304 305 305 305 306 306 307 307 307 308 308 309 309 309 309 311 0 0 0 0 0 0 863 863 864 864 865 866 866 868 868 868 868 868 868 866 866 866 865 865 864 863 863 862 862 860 860 859 858 857 857 856 854 853 852 850 849 847 846 845 844 844 844 843 844 844 845 845 845 845 846 845 845 845 844 843 843 841 838 836 834 832 829 827 825 823 823 822 821 821 821 821 821 821 821 821 821 821 821 821 821 819 818 817 816 814 813 811 810 809 808 807 805 803 802 802 801 801 800 800 800 800 799 800 799 799 799 798 798 798 797 796 795 795 794 793 792 792 791 790 789 788 788 787 786 785 783 782 781 780 779 778 777 776 776 775 774 774 774 773 772 772 771 771 770 770 770 770 770 769 768 768 767 766 766 765 765 764 763 763 762 761 761 760 759 758 758 757 757 756 755 755 755 755 754 753 752 750 748 747 746 745 744 742 741 740 740 739 738 738 738 737 737 737 736 736 736 735 734 734 733 732 731 731 731 731 730 729 729 728 728 727 727 726 725 725 725 724 724 723 723 722 722 721 721 721 721 721 721 720 721
0 0 0 0 0 0 0 0 0 0 0 0 0 0 0 0 0 0 0 0 0 0 0 0 0 0 0 0 0 0 0 0 0 0 0 0 0 0 0 0 720 720 720 720 720 720 720 720 720 719 719 719 719 719 719 719 719 719 719 719 719 719 718 716 715 714 712 710 709 707 708 707 708 709 0 0 0 0 725 728 731 733 735 736 738 739 741 742 744 744 745 745 745 747 748 748 748 748 749 0 0 0 0 0 0 0 0 0 0 0 0 0 0 0 0 0 0 0 0 0 0 0 0 0 0 0 0 0 0 0 0 0 0 0 0 0 0 0 0 0 0 0 0 0 0 0 0 0 0 0 0 0 0 0 0 0 0 0 0 0 0 0 0 0 0 0 0 0 0 0 0 0 0 0 0 0 0 0 0 0 0 0 0 0 0 0 0 0 0 0 246 247 247 247 247 248 248 248 248 248 248 248 248 248 247 247 247 247 247 0 0 0 0 0 0 0 245 0 245 245 245 245 245 245 245 245 245 245 245 245 245 245 245 245 246 246 247 247 0 0 0 254 256 257 258 258 259 259 260 260 261 261 262 263 264 265 266 267 268 269 270 272 274 275 277 278 279 280 281 0 0 0 0 284 285 286 0 0 0 0 0 0 0 0 0 0 0 0 0 0 0 0 350 351 352 353 355 357 359 361 364 366 368 370 371 373 374 376 0 378 378 379 380 0 0 0 0 0 0 0 0 0 0 0 0 0 0 0 0 0 0 0 0 0 0 0 312 311 311 311 310 309 309 308 308 307 307 306 306 305 305 305 304 304 304 303 303 303 303 302 302 302 302 302 302 301 301 301 301 301 301 301 301 301 301 301 301 301 301 301 302 302 302 302 302 303 303 304 304 304 305 305 306 306 307 307 308 308 309 309 309 310 310 310 311 311 0 0 0 0 0 863 863 864 864 864 866 866 868 868 868 868 868 868 868 866 866 866 865 864 864 863 863 862 862 860 859 858 858 857 856 854 853 852 850 849 847 846 845 844 844 844 843 844 844 845 845 845 845 845 845 845 844 843 843 842 841 838 836 834 832 830 828 826 825 823 823 823 823 822 822 822 822 822 822 822 822 822 822 821 821 818 817 815 814 812 811 809 808 806 805 803 802 801 801 800 800 800 800 799 799 799 799 800 799 799 799 798 798 798 797 796 795 794 794 793 792 792 791 790 789 788 787 787 785 784 783 782 781 780 779 778 777 776 775 774 774 773 773 772 771 771 770 770 770 770 769 769 768 768 767 766 765 765 765 764 764 763 763 762 761 761 760 759 759 758 757 757 756 756 755 755 755 754 753 752 751 749 748 746 745 744 743 741 740 740 739 738 738 738 737 737 737 737 737 736 735 734 734 733 732 731 731 731 730 730 729 728 728 728 727 727 726 725 725 725 724 723 722 722 721 721 721 721 720 720 720 720 720 720
0 0 0 0 0 0 0 0 0 0 0 0 0 0 0 0 0 0 0 0 0 0 0 0 0 0 0 0 0 0 0 0 0 0 0 0 0 0 0 0 0 723 723 723 723 723 722 722 722 722 722 722 722 721 722 722 722 722 722 721 722 721 720 719 0 0 0 0 712 710 710 710 710 0 0 0 0 0 0 730 731 733 735 736 737 737 738 740 741 742 744 745 745 745 746 747 747 747 0 0 0 0 0 0 0 0 0 0 0 0 0 0 0 0 0 0 0 0 0 0 0 0 0 0 0 0 0 0 0 0 0 0 0 0 0 0 0 0 0 0 0 0 0 0 0 0 0 0 0 0 0 0 0 0 0 0 0 0 0 0 0 0 0 0 0 0 0 0 0 0 0 0 0 0 0 0 0 0 0 0 0 0 0 0 0 0 0 0 245 245 245 246 246 246 247 247 247 247 247 247 247 247 247 247 247 246 246 246 245 245 245 244 0 0 0 244 245 245 245 245 245 245 245 245 245 245 245 245 245 245 245 245 245 245 246 246 246 247 0 0 0 0 256 257 258 258 259 259 260 260 261 261 262 263 264 265 266 267 268 269 270 0 0 0 0 0 0 281 0 0 0 0 0 0 286 0 0 0 0 0 0 0 0 0 0 0 0 0 0 0 0 0 349 351 352 353 355 357 359 361 364 366 368 370 372 373 375 376 0 378 378 0 380 0 0 0 0 0 0 0 0 0 0 0 0 0 0 0 0 0 0 0 0 0 0 0 313 312 312 311 311 310 309 309 308 307 307 307 306 306 305 305 305 304 304 304 304 303 303 303 302 302 302 302 302 302 302 302 302 302 302 301 301 301 301 301 301 301 302 302 302 302 302 302 303 303 303 304 304 305 305 306 307 307 308 308 309 309 309 310 310 310 311 311 313 312 314 0 0 0 0 862 863 863 864 864 866 866 868 868 868 868 868 868 868 866 866 866 865 865 864 863 863 862 860 860 859 858 858 856 856 853 852 851 850 849 847 846 845 844 844 843 844 844 844 845 845 845 845 844 844 844 844 843 842 841 839 838 836 834 833 830 829 827 826 825 825 824 824 823 823 823 823 824 823 823 823 823 822 822 821 818 817 815 813 812 810 808 807 806 803 802 801 800 800 799 799 799 799 799 799 799 799 799 799 799 799 799 798 798 797 796 795 795 794 793 793 792 791 791 790 789 788 787 786 785 784 783 782 780 779 778 777 776 775 774 774 773 772 772 771 770 770 770 770 769 768 768 768 767 766 766 765 764 764 764 763 763 762 762 761 761 760 759 759 758 758 757 757 756 756 755 755 755 754 753 751 750 748 746 745 744 743 742 741 740 739 739 738 738 738 737 737 737 737 736 736 735 735 734 733 732 731 731 730 729 729 728 728 727 727 726 726 725 725 725 724 723 722 721 721 720 720 719 719 719 719 719 719 719
0 0 0 0 0 0 0 0 0 0 0 0 0 0 0 0 0 0 0 0 0 1817 1817 1817 1822 0 0 0 0 0 0 0 0 0 0 0 0 0 0 0 0 0 725 725 725 725 725 725 724 724 724 724 724 724 724 724 724 724 724 724 724 724 722 720 720 0 0 0 0 0 0 0 0 0 0 0 0 0 0 0 0 732 733 734 735 735 737 737 738 740 741 742 743 743 744 745 745 0 0 745 744 0 0 0 0 0 0 0 0 0 0 0 0 0 0 0 0 0 0 0 0 0 0 0 0 0 0 0 0 0 0 0 0 0 0 0 0 0 0 0 0 0 0 0 0 0 0 0 0 0 0 0 0 0 0 0 0 0 0 0 0 0 0 0 0 0 0 0 0 0 0 0 0 0 0 0 0 0 0 0 0 0 0 0 0 0 243 243 244 244 244 244 245 245 245 245 246 246 246 246 246 246 246 245 245 245 245 244 244 244 244 243 243 0 0 244 244 245 245 245 245 245 245 245 245 245 245 245 245 244 245 245 245 245 246 246 246 247 248 250 0 0 255 256 257 258 258 259 260 260 261 261 262 263 264 265 266 267 268 269 270 271 273 275 0 279 280 281 282 283 283 284 284 285 286 286 287 0 0 0 0 0 334 335 0 0 0 0 0 0 0 0 349 350 352 353 355 357 359 362 364 367 369 371 373 374 375 377 378 378 379 379 380 0 0 0 0 0 0 0 0 0 0 0 0 0 0 0 0 0 0 0 317 316 315 314 314 313 312 312 311 310 310 309 308 308 307 307 307 306 306 305 305 305 305 304 304 304 303 303 303 303 302 302 302 302 302 302 302 302 302 302 302 302 302 302 302 302 302 302 302 302 302 303 303 303 304 304 304 305 306 307 307 308 308 309 309 309 310 310 311 311 311 311 313 313 314 0 0 0 0 862 863 864 865 865 866 868 868 868 868 868 868 868 868 868 866 865 864 864 864 863 862 862 860 859 859 858 857 856 854 853 852 851 850 849 847 846 845 845 845 845 844 845 844 845 845 845 845 844 844 843 843 842 841 839 838 837 835 834 833 830 829 828 827 826 826 825 825 825 825 825 825 825 825 824 824 824 823 823 821 819 817 815 813 811 810 808 806 803 802 802 800 800 799 799 799 799 799 798 798 798 799 798 799 799 798 798 798 798 797 796 796 795 794 794 793 793 792 791 790 789 788 788 787 786 784 783 782 781 780 778 777 776 775 774 774 773 772 771 770 770 770 770 769 769 768 767 767 767 766 765 765 764 764 763 763 762 762 762 762 761 760 760 759 759 758 758 757 756 756 755 755 755 754 752 751 750 748 747 745 744 743 742 741 740 740 739 738 739 738 738 737 737 737 737 737 736 735 734 733 732 731 731 730 729 729 728 728 727 727 726 725 725 725 724 723 722 721 720 720 720 719 719 719 719 719 719 718 719
0 0 0 0 0 0 0 0 0 0 0 0 0 0 0 0 0 0 0 0 1817 1817 1817 1811 1822 1822 0 0 0 0 0 0 0 0 0 0 0 0 0 0 0 0 0 728 728 727 727 726 726 726 726 726 726 726 726 726 726 725 726 726 725 725 725 723 722 721 720 0 0 0 0 0 0 0 0 0 0 0 0 0 0 0 732 732 733 733 733 734 735 737 737 739 739 740 742 743 743 742 743 743 742 741 0 0 0 0 0 0 0 0 0 0 0 0 0 0 0 0 0 0 0 0 0 0 0 0 0 0 0 0 0 0 0 0 0 0 0 0 0 0 0 0 0 0 0 0 0 0 0 0 0 0 0 0 0 0 0 0 0 0 0 0 0 0 0 0 0 0 0 0 0 0 0 0 0 0 0 0 0 0 0 0 0 0 0 242 242 242 242 242 243 243 243 243 244 244 244 244 244 244 244 244 244 244 244 244 243 243 243 243 243 243 0 0 0 244 244 244 244 245 245 244 244 244 244 244 244 244 244 244 244 245 245 245 246 246 246 247 248 250 252 0 255 256 257 258 259 259 260 260 261 262 262 263 264 264 265 266 267 268 270 271 273 275 277 279 280 281 282 283 284 284 285 285 286 286 0 287 0 0 0 333 334 335 336 336 337 339 340 343 345 346 348 350 352 353 355 357 359 362 364 367 369 371 373 375 376 377 378 379 379 380 380 0 0 0 0 0 0 0 0 0 0 0 0 0 0 0 0 0 0 0 0 0 0 0 314 313 313 312 312 311 310 309 309 308 308 307 307 307 306 306 305 305 305 305 304 304 304 304 303 303 303 303 303 303 302 302 302 302 302 302 302 302 302 302 302 302 302 302 302 303 303 303 303 303 304 304 305 305 306 307 307 308 309 309 310 310 310 311 311 311 311 312 313 313 314 0 0 0 0 863 864 864 865 865 866 868 868 869 869 869 868 868 868 868 866 865 865 864 863 862 862 860 860 859 858 857 856 856 854 853 852 851 850 849 847 846 846 845 845 845 845 845 845 845 845 844 844 844 843 842 842 841 839 838 837 836 835 834 833 832 830 829 828 827 827 827 826 826 826 825 825 825 825 825 824 824 823 822 821 819 817 815 813 811 809 808 805 803 802 801 800 800 799 798 798 798 798 798 798 798 798 798 798 798 798 798 798 798 797 797 796 795 794 794 793 793 792 791 791 790 789 788 787 786 785 784 783 781 780 779 778 777 775 774 774 773 772 771 770 770 770 769 769 768 767 767 766 766 766 765 764 764 763 763 763 762 762 761 761 761 760 760 759 759 758 758 757 757 756 755 755 755 754 752 751 749 748 746 745 744 743 742 741 740 740 739 739 739 738 738 738 737 737 737 737 736 735 734 734 733 732 731 731 730 729 729 728 728 727 727 726 725 725 724 723 722 721 720 719 719 719 719 719 718 718 718 718 718
0 0 0 0 0 0 0 0 0 0 0 0 0 0 0 0 0 0 0 1811 1811 1811 1811 1811 1817 1822 1827 1827 0 0 0 0 0 0 0 0 0 0 0 0 0 0 0 0 0 730 729 729 728 728 728 728 728 729 729 729 729 729 729 729 728 727 727 725 725 724 723 721 720 718 717 716 0 0 0 0 0 0 0 0 0 0 731 732 732 732 732 733 733 735 736 736 0 0 739 740 741 740 740 740 0 0 0 0 0 0 0 0 0 0 0 0 0 0 0 0 0 0 0 0 0 0 0 0 0 0 0 0 0 0 0 0 0 0 0 0 0 0 0 0 0 0 0 0 0 0 0 0 0 0 0 0 0 0 0 0 0 0 0 0 0 0 0 0 0 0 0 0 0 0 0 0 0 0 0 0 0 0 0 0 0 0 0 0 0 240 241 241 241 241 242 242 242 242 242 242 243 243 243 243 243 243 243 243 242 242 242 242 242 0 242 242 242 0 0 243 243 243 0 243 244 243 243 243 0 0 243 244 244 244 244 245 245 245 246 246 247 247 249 250 251 0 254 256 257 258 259 259 260 261 261 262 263 263 264 264 265 266 266 268 269 271 273 0 278 279 280 281 282 283 284 284 285 285 286 286 0 0 0 0 0 333 334 334 335 336 337 338 340 342 344 346 348 350 352 354 355 358 360 362 365 367 369 372 373 375 376 378 378 379 379 380 0 0 0 0 0 0 0 0 0 0 0 0 0 0 0 0 0 0 0 0 0 0 0 0 315 314 313 312 312 311 310 310 309 309 308 308 307 307 307 306 306 306 305 305 305 304 304 304 304 304 303 303 303 303 303 303 303 303 303 303 302 302 302 302 302 302 302 303 303 303 303 303 303 304 304 304 305 306 307 307 308 308 309 309 310 310 311 311 311 311 312 312 313 313 314 0 0 0 0 864 865 866 866 866 868 868 869 869 869 869 869 869 868 868 866 865 865 864 863 862 862 860 860 858 858 857 856 854 853 853 852 851 850 847 847 847 846 846 845 845 846 845 845 845 845 844 844 843 843 842 841 839 838 838 837 836 835 834 833 832 832 830 829 828 828 828 827 827 826 826 826 825 825 825 824 824 823 822 821 818 816 815 813 811 809 807 805 803 802 801 800 800 798 798 798 798 798 797 797 797 798 798 798 798 798 798 798 798 797 797 796 795 795 794 793 793 792 792 791 790 789 788 788 787 786 784 783 782 780 779 778 777 775 774 774 772 771 771 770 770 769 769 768 768 767 767 766 766 766 765 765 764 764 763 763 762 762 762 761 761 761 760 760 759 758 758 757 757 756 755 755 754 753 752 750 749 747 746 745 744 742 741 741 740 740 739 739 739 738 738 738 738 738 737 737 736 736 735 734 733 732 731 731 730 730 729 729 728 728 727 726 725 725 724 723 722 721 720 719 719 719 718 718 718 718 717 717 717
0 0 0 0 0 0 0 0 0 0 0 0 0 0 0 0 0 0 0 1806 1806 1806 1811 1811 1817 1822 1827 1833 1833 0 0 0 0 0 0 0 0 0 0 0 0 0 0 0 0 0 731 731 730 730 730 730 730 731 731 731 731 731 731 730 730 730 729 728 727 727 726 725 724 721 720 719 0 0 0 0 0 0 0 0 0 731 731 732 731 731 732 731 732 733 734 735 0 0 0 0 738 737 738 0 0 0 0 0 0 0 0 0 0 0 0 0 0 0 0 0 0 0 0 0 0 0 0 0 0 0 0 0 0 0 0 0 0 0 0 0 0 0 0 0 0 0 0 0 0 0 0 0 0 0 0 0 0 0 0 0 0 0 0 0 0 0 0 0 0 0 0 0 0 0 0 0 0 0 0 0 0 0 0 0 0 0 0 0 239 240 240 240 240 240 240 240 240 241 0 241 241 241 241 242 242 242 0 242 241 241 241 241 241 241 241 240 240 241 241 241 241 0 0 242 242 242 242 0 0 242 243 243 243 244 244 245 245 246 246 247 247 247 249 250 251 0 254 256 257 258 259 260 260 261 261 262 263 263 264 264 265 265 266 267 269 0 0 0 0 0 0 281 282 283 283 284 285 285 286 0 0 0 0 0 331 332 333 334 335 336 337 338 340 342 344 346 348 350 352 354 356 358 360 363 365 368 370 372 374 375 377 378 378 379 380 0 0 0 0 0 0 0 0 0 0 0 0 0 0 0 0 0 0 0 0 319 0 318 317 316 315 314 314 313 312 311 311 310 309 309 308 308 308 307 307 307 306 306 306 305 305 305 305 304 304 304 304 304 303 303 303 303 303 303 303 303 303 303 303 303 303 303 303 303 303 303 303 304 304 304 304 305 305 306 307 307 308 309 309 310 310 311 311 311 311 312 312 312 313 314 314 0 0 0 0 864 865 866 866 866 869 869 869 869 870 870 869 869 869 868 866 865 865 864 863 862 862 860 859 858 857 857 856 853 852 851 851 850 849 847 847 847 846 846 846 846 846 845 845 845 844 844 843 843 842 841 839 839 838 837 836 835 834 834 833 832 832 832 830 829 829 828 828 827 827 826 826 826 825 825 824 823 822 821 819 817 816 813 812 810 808 806 805 803 802 801 800 800 799 798 798 798 797 797 797 797 798 797 797 797 797 798 797 798 797 797 797 796 795 794 794 793 792 792 791 790 790 789 788 787 786 785 784 783 781 780 779 778 776 775 774 773 772 771 770 770 769 769 768 768 767 767 767 766 766 765 765 764 764 764 763 763 762 762 762 761 761 760 760 759 759 758 757 756 755 755 755 754 752 751 750 748 746 745 744 743 742 741 740 740 740 739 739 739 738 738 738 738 738 737 737 737 736 735 734 733 732 731 731 731 730 730 729 729 728 728 727 726 725 725 724 723 722 721 720 719 719 719 718 718 717 717 717 717
0 0 0 0 0 0 0 0 0 0 0 0 0 0 0 0 0 0 0 1785 1790 1796 1796 1801 1811 1817 1822 1827 1833 1833 0 0 0 0 0 0 0 0 0 0 0 0 0 0 0 0 0 731 731 730 731 730 731 731 731 731 731 731 731 731 731 731 730 729 728 729 727 725 725 724 0 0 0 0 0 0 0 0 0 0 731 731 731 731 731 731 731 731 731 732 733 733 734 734 736 736 737 737 737 738 0 0 0 0 0 0 0 0 0 0 0 0 0 0 0 0 0 0 0 0 0 0 0 0 0 0 0 0 0 0 0 0 0 0 0 0 0 0 0 0 0 0 0 0 0 0 0 0 0 0 0 0 0 0 0 0 0 0 0 0 0 0 0 0 0 0 0 0 0 0 0 0 0 0 0 0 0 0 0 0 0 0 0 0 0 239 239 239 239 239 239 239 239 239 0 239 240 240 240 240 240 240 240 240 240 240 240 240 240 240 239 239 239 239 239 0 0 0 0 0 0 0 0 0 241 242 242 242 243 243 244 245 245 246 246 247 247 248 249 250 251 0 254 255 257 258 259 260 261 261 262 262 263 263 264 264 265 265 266 267 269 0 273 276 278 0 280 281 282 282 283 284 284 285 286 0 0 328 329 330 331 332 333 334 335 336 337 339 340 342 344 345 348 350 353 355 357 358 361 363 366 368 370 372 374 375 377 378 378 379 380 0 0 0 0 0 0 0 0 0 0 0 0 0 0 0 0 0 0 0 0 320 319 318 318 317 316 315 314 313 313 312 311 310 310 309 309 308 308 308 307 307 307 306 306 306 305 305 305 305 304 304 304 304 304 304 304 303 303 303 303 303 303 303 303 303 303 303 303 303 303 304 304 304 304 304 304 305 305 306 307 308 308 309 309 310 311 311 311 311 312 312 312 312 313 313 313 0 0 0 0 864 865 866 868 868 870 870 870 870 870 870 870 869 869 868 866 865 864 864 863 862 860 859 858 858 857 856 854 853 852 851 850 850 849 847 847 847 846 846 846 846 846 845 845 845 844 844 843 843 842 841 839 838 837 837 836 835 834 834 833 833 832 832 830 829 829 828 828 827 827 826 826 825 824 824 823 822 821 819 818 816 815 813 811 809 808 806 805 802 801 801 800 800 799 798 798 798 797 797 797 797 797 797 797 797 797 798 798 798 798 798 797 796 795 795 794 793 793 792 791 790 790 789 788 787 786 785 784 783 782 781 780 778 777 775 774 773 773 771 770 770 770 769 769 768 768 768 767 767 766 766 765 765 765 764 764 763 763 762 762 762 761 760 760 759 759 758 757 756 755 755 754 752 751 750 748 747 746 745 743 742 742 741 740 740 740 739 739 739 739 739 738 738 738 737 737 737 736 735 734 733 732 731 731 731 730 730 730 729 729 728 727 727 726 725 724 723 722 721 720 720 719 719 719 718 718 717 717 717
0 0 0 0 0 0 0 0 0 0 0 0 0 0 0 0 0 0 0 0 1780 1785 1790 1796 1801 1811 1817 1822 1827 1827 1833 0 0 0 0 0 0 0 0 0 0 0 0 0 0 0 0 0 729 730 730 730 731 731 731 731 731 732 732 732 731 731 731 730 729 729 728 726 725 0 0 0 0 0 0 0 0 730 731 731 730 730 731 731 731 731 731 731 731 731 731 731 732 732 734 734 735 735 736 0 0 0 0 0 0 0 0 0 0 0 0 755 0 0 0 0 0 0 0 0 0 0 0 0 0 0 0 0 0 0 0 0 0 0 0 0 0 0 0 0 0 0 0 0 0 0 0 0 0 0 0 0 0 0 0 0 0 0 0 0 0 0 0 0 0 0 0 0 0 0 0 0 0 0 0 0 0 0 0 0 0 0 237 237 237 237 237 237 237 238 237 237 237 238 238 238 238 238 239 239 239 239 239 239 239 239 239 239 239 238 238 238 0 0 0 0 237 0 0 0 0 0 240 240 241 241 241 242 242 243 244 244 245 246 247 247 248 248 249 250 251 252 254 255 257 258 259 260 261 261 262 262 263 263 264 264 264 265 266 0 0 0 0 275 277 278 279 0 0 282 282 283 284 285 285 0 327 328 328 329 330 332 333 334 335 336 337 339 340 342 344 345 348 350 353 355 357 359 361 364 366 368 370 372 374 375 377 378 379 380 380 381 0 0 0 0 0 0 0 0 0 0 0 0 0 0 0 0 0 0 0 322 321 0 319 318 317 315 314 314 313 312 311 310 310 309 309 308 308 308 307 307 307 307 306 306 306 305 305 305 305 304 304 304 304 304 304 304 304 304 304 303 303 303 303 303 303 303 303 304 304 304 304 304 304 304 305 305 305 306 307 308 309 309 310 310 311 311 311 312 312 312 312 313 313 313 313 314 0 0 0 865 866 868 868 869 870 871 871 871 871 871 870 870 869 868 866 865 864 864 862 860 859 859 858 858 856 854 853 852 851 850 850 849 849 847 847 847 847 847 846 846 846 846 845 845 844 844 844 843 842 841 839 838 837 836 836 835 835 834 834 833 832 832 832 830 829 828 828 827 826 825 825 824 824 823 822 821 819 818 817 816 814 812 811 809 807 806 805 803 802 801 800 800 799 799 798 797 797 797 797 797 797 796 797 797 797 798 798 798 798 798 797 796 796 795 794 793 793 792 791 790 790 789 789 788 787 786 785 783 782 781 780 779 778 777 775 774 773 773 771 770 770 770 769 769 769 768 768 767 767 766 766 766 765 765 764 764 763 763 762 762 761 760 760 759 759 758 756 755 755 754 753 751 750 748 747 745 745 744 743 742 741 740 740 739 740 739 739 739 738 738 738 737 737 737 737 737 736 735 734 733 732 731 731 731 731 730 730 729 729 729 728 727 726 725 725 724 723 722 721 721 720 719 719 719 719 718 717 717
0 0 0 0 0 0 0 0 0 0 0 0 0 0 0 0 0 0 0 0 1770 1775 1775 1785 1796 1801 1806 1811 1817 1822 1822 0 0 0 0 0 0 0 0 0 0 0 0 0 0 0 0 0 727 727 727 727 727 728 729 730 731 731 731 731 731 731 731 729 729 729 728 0 0 0 0 0 0 0 0 0 0 0 730 731 730 730 730 731 731 730 730 730 730 730 731 730 731 731 732 732 733 733 734 0 0 0 0 0 0 0 0 751 753 755 756 757 757 759 760 761 0 0 0 0 0 0 0 0 0 0 0 0 0 0 0 0 0 0 0 0 0 0 0 0 0 0 0 0 0 0 0 0 0 0 0 0 0 0 0 0 0 0 0 0 0 0 0 0 0 0 0 0 0 0 0 0 0 0 0 0 0 0 0 0 0 235 236 236 236 236 236 236 236 236 236 236 236 237 237 237 237 237 238 238 238 238 238 238 238 238 237 237 237 237 236 236 0 0 0 235 235 236 236 237 238 238 239 240 240 240 241 241 242 242 243 244 245 246 247 247 248 248 249 250 251 252 254 255 256 258 259 260 261 261 262 262 263 263 264 264 264 265 266 0 0 0 0 275 0 277 278 279 0 281 281 282 283 284 0 0 327 327 328 329 330 331 333 334 335 336 338 339 340 342 344 346 0 350 353 355 357 359 361 364 366 368 370 372 374 375 376 378 379 380 0 0 0 0 0 0 0 0 0 0 0 0 0 0 0 0 0 0 0 0 323 322 322 321 320 319 318 316 315 314 313 312 311 310 310 309 309 309 308 308 308 307 307 307 307 306 306 306 305 305 305 305 304 304 304 304 304 304 304 304 304 304 304 304 304 304 304 304 304 304 304 304 304 304 304 304 305 305 305 306 307 308 309 309 310 310 311 311 311 312 312 312 312 313 313 313 313 314 0 0 0 865 866 868 869 869 871 871 873 871 871 871 871 870 869 868 868 866 865 864 862 860 859 858 858 857 856 854 852 851 850 849 847 847 847 847 847 847 847 847 846 846 846 846 846 845 845 844 844 843 842 841 839 838 837 836 835 835 835 834 834 833 832 832 832 830 829 828 827 826 826 825 824 823 823 822 821 819 818 817 816 815 813 812 810 809 808 806 805 803 802 802 801 801 800 800 799 798 798 797 797 797 797 796 797 797 797 798 798 798 798 798 797 797 796 795 794 793 792 792 791 791 790 789 789 788 787 786 785 784 783 782 781 780 779 778 777 775 774 774 773 772 771 770 770 770 770 769 768 768 768 767 767 766 766 765 765 764 764 763 763 762 761 760 760 759 758 757 756 755 754 753 751 750 749 747 745 745 744 743 742 741 740 740 739 739 739 739 739 739 738 738 738 737 737 737 737 737 736 735 734 733 732 731 731 731 731 730 730 730 729 729 729 728 727 726 725 725 724 723 723 722 721 720 720 719 719 719 719 719
0 0 0 0 0 0 0 0 0 0 0 0 0 0 0 0 0 0 0 1755 1760 1765 1770 1775 1785 1796 1796 1801 1806 1811 1811 0 0 0 0 0 0 0 0 0 0 0 0 0 0 0 0 0 725 724 725 725 725 726 727 729 729 729 731 731 731 731 731 729 729 729 729 0 0 0 0 0 0 0 0 0 0 0 730 730 729 730 730 730 730 730 729 729 730 730 730 730 730 731 731 731 732 733 734 0 0 0 740 743 745 746 747 750 752 754 756 756 758 759 760 762 0 0 0 0 0 0 0 0 0 0 0 0 0 0 0 0 0 0 0 0 0 0 0 0 0 0 0 0 0 0 0 0 0 0 0 0 0 0 0 0 0 0 0 0 0 0 0 0 0 0 0 0 0 0 0 0 0 0 0 0 0 0 0 0 0 0 0 235 235 235 235 235 235 235 235 235 235 235 236 236 236 236 236 236 236 236 236 236 236 236 236 236 236 236 235 235 235 235 234 234 234 235 235 236 237 237 238 239 239 240 240 241 242 242 243 244 245 246 247 247 248 248 249 250 251 252 253 255 256 258 259 260 261 261 262 262 262 263 263 263 264 264 265 0 0 0 0 275 276 0 278 0 279 280 281 282 282 0 0 0 326 327 327 328 330 331 332 334 335 336 338 339 341 342 344 346 348 350 353 355 358 359 362 364 367 369 370 372 373 375 376 378 379 380 0 0 0 0 0 0 0 0 0 0 0 0 0 0 0 0 0 0 0 0 324 323 322 322 0 319 318 317 316 314 313 312 311 311 310 309 309 309 308 308 308 308 307 307 307 306 306 306 305 305 305 305 305 304 304 304 304 304 304 304 304 304 304 304 304 304 304 304 304 304 304 304 304 304 304 305 305 305 305 306 307 308 309 309 310 310 311 311 311 312 312 312 312 313 313 313 313 313 0 0 0 865 868 869 869 869 871 871 873 873 873 871 871 870 870 869 868 866 865 864 862 860 859 858 857 856 854 852 851 849 849 847 847 846 846 846 846 847 847 847 846 846 846 846 846 845 845 844 844 843 842 841 839 837 836 836 835 835 834 834 833 833 832 832 830 829 828 827 827 825 825 824 823 822 822 821 819 818 817 816 816 814 813 812 810 809 808 807 806 805 803 803 802 802 801 800 799 799 798 798 798 798 798 797 797 797 798 798 798 798 798 798 798 797 796 795 794 793 792 792 791 791 790 789 789 788 787 787 786 785 784 783 782 781 780 779 779 777 777 776 774 773 772 772 771 770 770 770 769 769 768 768 768 767 767 766 766 765 765 764 763 762 761 760 760 759 758 756 756 755 754 752 751 749 747 746 745 744 743 742 741 741 740 740 739 739 739 739 738 738 738 737 737 737 737 737 736 736 735 735 734 733 732 732 731 731 731 731 730 730 730 729 729 728 728 727 726 725 725 724 724 723 722 721 721 720 720 719 719 719
0 0 0 0 0 0 0 0 0 0 0 0 0 0 0 0 0 0 1745 1750 1755 1760 1760 1765 1775 1780 1785 1790 1796 1796 0 0 0 0 0 0 0 0 0 0 0 0 0 0 0 0 0 721 721 721 722 722 723 724 725 725 726 727 728 729 729 729 729 728 728 729 0 0 0 0 0 0 0 0 0 0 0 0 730 730 730 730 731 731 730 730 730 730 729 730 730 730 731 731 731 731 731 732 733 735 736 737 739 741 743 745 745 749 751 754 755 756 757 759 760 761 0 0 0 0 0 0 0 0 0 0 0 0 0 0 0 0 0 0 0 0 0 0 0 0 0 0 0 0 0 0 0 0 0 0 0 0 0 0 0 0 0 0 0 0 0 0 0 0 0 0 0 0 0 0 0 0 0 0 0 0 0 0 0 0 0 0 0 0 233 233 234 234 234 234 234 234 234 234 234 234 234 234 235 235 235 235 235 235 235 235 235 235 234 234 234 234 234 233 233 233 233 234 234 235 236 237 237 238 239 240 240 241 241 242 243 244 245 245 246 247 248 248 249 250 251 252 253 255 256 257 259 260 261 261 261 262 262 262 263 263 263 264 265 0 0 0 273 275 276 276 277 278 279 279 280 281 0 0 0 325 325 326 327 328 329 331 332 334 335 336 338 340 341 343 344 346 348 351 353 356 358 360 362 364 367 369 371 372 374 375 376 378 379 381 381 383 0 0 0 0 0 0 0 0 0 0 0 0 0 0 0 0 0 0 325 324 0 0 0 320 319 317 316 315 314 312 311 310 310 309 309 309 309 308 308 308 308 307 307 307 306 306 306 305 305 305 305 305 304 304 304 304 304 304 304 304 304 304 304 304 304 304 304 304 304 304 304 304 304 305 305 305 305 306 307 308 309 309 310 310 311 311 311 311 312 312 312 313 313 313 313 313 0 0 0 866 868 869 869 870 871 873 873 873 873 871 871 870 870 869 868 866 865 864 862 860 859 858 856 856 853 852 850 849 847 847 846 846 846 846 846 847 847 847 847 846 846 846 845 845 844 844 843 842 841 841 838 837 836 836 835 834 834 834 833 832 832 832 830 829 828 827 826 824 824 823 822 821 821 819 818 817 817 816 815 814 813 812 811 810 809 808 807 806 805 803 803 802 802 801 800 800 799 799 798 798 798 798 798 798 798 798 798 799 798 798 798 797 796 795 794 793 792 792 791 791 790 789 789 788 787 787 786 785 784 784 783 782 781 780 779 779 778 777 776 774 773 772 772 771 770 770 770 770 769 769 768 768 767 767 766 766 765 764 763 762 761 760 759 758 757 756 755 754 752 751 750 748 746 745 745 744 743 742 741 740 740 739 739 739 739 739 738 738 738 737 737 737 737 736 736 735 734 734 733 732 732 731 731 731 731 730 730 730 729 729 729 728 728 727 726 725 725 725 724 724 723 723 722 722 721 721 720 720
0 0 0 0 0 0 0 0 0 0 0 0 0 0 0 0 0 0 1745 1750 1750 1755 1755 1760 1765 1770 1775 1780 1780 1785 0 0 0 0 0 0 0 0 0 0 0 0 0 0 0 0 0 719 719 719 719 719 719 720 722 723 725 725 725 725 728 728 728 0 0 0 0 0 0 0 0 0 0 0 0 0 0 0 0 730 730 730 730 730 0 0 0 0 730 730 730 730 730 731 731 731 731 0 0 0 736 737 739 741 743 745 745 749 751 754 755 756 757 759 760 761 0 0 0 0 0 0 0 0 0 0 0 0 0 0 0 0 0 0 0 0 0 0 0 0 0 0 0 0 0 0 0 0 0 0 0 0 0 0 0 0 0 0 0 0 0 0 0 0 0 0 0 0 0 0 0 0 0 0 0 0 0 0 0 0 0 0 0 232 232 232 233 233 233 233 232 233 233 233 233 233 233 233 233 233 233 233 233 234 234 233 233 233 233 0 233 233 233 233 233 233 233 233 234 234 235 236 237 238 239 239 240 240 241 242 242 243 244 245 246 247 247 248 249 249 250 251 253 254 256 257 259 260 260 261 261 262 262 262 263 263 263 263 264 266 268 270 272 274 275 276 277 277 278 279 279 0 0 0 0 324 325 325 326 328 329 331 332 334 336 337 338 340 341 343 344 346 348 351 353 356 358 361 362 365 367 369 371 372 373 375 376 378 379 381 382 383 384 385 0 0 0 0 0 0 0 0 0 0 0 0 0 0 326 326 325 325 324 324 323 321 320 318 316 315 314 312 311 311 310 310 309 309 309 309 309 308 308 308 307 307 307 306 306 306 305 305 305 305 305 305 304 304 304 304 304 304 304 304 304 304 304 304 304 304 304 304 304 305 305 305 305 305 305 306 307 308 308 309 310 310 311 311 311 311 312 312 312 313 313 313 313 313 0 0 0 866 868 869 869 869 873 873 873 873 871 871 871 870 870 869 868 866 865 864 862 860 859 857 856 856 853 852 850 849 847 846 846 846 846 846 846 847 847 847 847 846 846 845 845 844 844 843 842 842 841 839 838 837 836 835 835 834 834 834 833 832 832 830 830 829 827 826 825 824 823 822 822 821 819 818 817 817 816 815 814 813 812 811 810 809 809 808 807 807 806 805 803 803 802 801 800 800 800 799 799 799 799 799 799 799 799 799 799 799 799 799 798 797 796 795 794 793 792 792 791 791 790 789 789 788 788 787 786 786 785 784 784 784 783 782 781 780 779 778 777 775 774 773 772 771 770 770 770 770 769 769 769 768 768 767 767 766 765 764 763 762 761 760 759 757 756 755 755 753 751 750 748 747 746 745 744 743 742 741 741 740 740 740 740 739 739 739 739 738 737 737 737 737 737 736 736 735 734 734 733 732 731 731 731 731 731 730 730 729 729 729 728 728 727 727 726 726 725 725 725 725 724 724 723 723 723 722 721 722
0 0 0 0 0 0 0 0 0 0 0 0 0 0 0 0 0 0 1745 1750 1750 1750 1750 1755 1760 1760 1765 1760 1765 1765 0 0 0 0 0 0 0 0 0 0 0 0 0 0 0 0 0 0 715 715 716 717 716 717 719 719 720 721 723 723 725 726 0 0 0 0 0 0 0 0 0 0 0 0 0 0 0 0 729 729 730 730 730 731 0 0 0 0 730 730 730 729 730 730 731 731 731 732 734 735 737 738 739 741 743 745 745 749 751 754 755 756 757 759 760 762 0 0 0 0 0 0 0 0 0 0 0 0 0 0 0 0 0 0 0 0 0 0 0 0 0 0 0 0 0 0 0 0 0 0 0 0 0 0 0 0 0 0 0 0 0 0 0 0 0 0 0 0 0 0 0 0 0 0 0 0 0 0 0 0 0 231 231 231 0 0 0 231 231 231 231 231 231 231 0 231 231 0 0 0 0 0 0 232 232 232 232 232 232 232 232 232 232 232 232 232 233 233 233 234 235 236 237 237 238 239 240 240 241 242 242 243 244 245 246 247 247 248 248 249 250 251 252 254 255 257 258 259 260 261 261 261 261 262 262 262 263 263 264 0 267 269 271 273 274 275 276 277 277 278 0 0 0 0 323 323 324 325 326 327 329 331 333 335 336 337 339 340 342 343 345 346 348 351 354 356 359 361 363 365 367 369 371 372 373 375 376 378 379 381 382 384 385 386 0 0 0 0 0 0 0 0 0 0 0 0 0 0 0 326 326 325 325 324 323 322 320 319 0 316 314 313 311 311 310 310 310 309 309 309 309 309 308 308 308 307 307 307 306 306 306 305 305 305 305 305 304 304 304 304 304 304 304 304 304 304 304 304 304 304 304 305 305 305 305 305 305 305 305 306 307 308 309 309 310 310 311 311 311 311 312 312 312 312 313 313 313 0 0 0 0 866 866 869 869 869 871 873 873 873 871 871 870 870 869 869 868 866 865 864 862 860 859 858 856 856 853 852 850 849 847 846 846 846 846 846 847 847 849 849 847 847 846 845 845 844 844 843 842 842 841 838 838 837 836 835 835 835 834 834 833 832 832 830 829 828 827 825 824 823 823 822 821 819 818 817 817 816 815 814 813 813 812 811 810 810 809 808 807 807 806 805 805 803 802 801 801 801 800 800 800 800 800 800 800 800 800 800 800 800 799 799 798 797 796 795 794 793 792 792 791 790 790 789 788 788 787 787 787 786 785 785 785 785 784 783 782 781 780 779 777 776 774 773 772 771 770 770 769 769 769 769 769 768 767 767 766 766 765 764 763 761 760 759 758 757 756 755 754 752 751 749 748 746 745 745 744 743 742 742 742 741 741 740 740 740 740 739 739 738 738 737 737 737 736 736 735 735 734 733 732 732 731 731 730 730 730 729 729 729 728 728 728 727 727 727 726 726 726 725 725 725 725 725 724 724 724 723 723 723
0 0 0 0 0 0 0 0 0 0 0 0 0 0 0 0 0 0 1750 1745 1745 1745 1745 1750 1750 1750 1750 1750 1750 1750 1750 0 0 0 0 0 0 0 0 0 0 0 0 0 0 0 0 0 712 711 712 712 712 712 714 715 716 717 718 719 0 0 0 0 0 0 0 0 0 0 0 0 0 0 0 0 0 0 0 730 730 730 0 0 0 0 0 0 0 0 0 0 730 730 731 731 731 732 734 736 737 738 739 741 743 745 745 750 753 755 756 757 759 760 762 763 0 0 0 0 0 0 0 0 0 0 0 0 0 0 0 0 0 0 0 0 0 0 0 0 0 0 0 0 0 0 0 0 0 0 0 0 0 0 0 0 0 0 0 0 0 0 0 0 0 0 0 0 0 0 0 0 0 0 0 0 0 0 0 0 0 230 230 0 0 230 230 230 230 230 230 230 230 230 230 230 230 230 230 230 0 230 231 231 231 231 231 231 231 231 231 231 231 231 232 232 232 232 233 233 234 235 236 237 238 239 239 240 241 241 242 243 244 245 246 246 247 247 248 249 250 251 252 254 255 257 258 259 260 260 261 261 261 261 262 262 262 263 264 0 0 0 270 272 273 275 0 0 0 0 0 0 0 322 322 323 323 324 325 327 329 331 333 335 337 338 339 341 342 344 345 346 348 351 353 356 359 361 363 365 367 369 371 372 373 375 376 378 380 381 383 384 385 386 0 0 0 0 0 0 0 0 0 0 0 0 0 0 0 326 326 326 325 325 324 323 321 319 0 316 315 313 312 311 311 310 310 310 309 309 309 309 309 308 308 308 307 307 307 306 306 305 305 305 305 305 305 305 304 304 304 304 304 304 304 304 304 304 304 305 305 305 305 305 305 305 305 305 306 307 308 308 309 310 310 311 311 311 311 311 312 312 312 312 313 313 313 0 0 0 0 866 866 868 869 869 871 871 871 871 871 871 870 870 869 868 868 866 865 864 863 860 859 858 857 856 854 852 851 849 849 847 847 847 847 847 847 849 849 849 847 847 846 845 845 844 843 842 842 841 839 838 838 836 836 835 835 835 834 834 834 833 832 830 829 828 826 825 824 823 822 821 819 819 818 817 816 815 815 814 814 813 812 812 811 810 809 808 807 807 806 805 805 803 802 802 801 801 801 801 801 800 801 801 801 801 801 801 800 800 800 799 798 797 796 795 794 793 792 791 790 790 789 789 788 788 788 787 787 786 786 786 786 785 785 784 783 782 781 779 778 776 774 773 772 770 770 770 769 769 769 769 769 768 767 767 766 765 764 763 762 761 760 759 758 757 755 755 753 752 750 749 747 746 745 745 744 744 743 742 742 742 742 742 741 741 740 740 740 739 738 737 737 737 736 736 735 734 734 733 732 731 731 731 730 729 729 728 728 728 728 727 727 727 726 726 726 726 726 725 725 725 725 725 725 725 725 725 724 724
0 0 0 0 0 0 0 0 0 0 0 0 0 0 0 0 0 0 0 1750 1745 1745 1745 1740 1740 1740 1735 1730 1735 1735 1735 0 0 0 0 0 0 0 0 0 0 0 0 0 0 0 0 0 708 708 709 709 709 709 710 711 713 715 715 717 0 0 0 0 0 0 0 0 0 0 0 0 0 0 0 0 0 0 0 730 730 0 0 0 0 0 0 0 0 0 0 0 729 730 730 0 0 0 0 0 736 737 739 741 743 745 745 750 753 755 757 759 760 762 763 764 0 0 0 0 0 0 0 0 0 0 0 0 0 0 0 0 0 0 0 0 0 0 0 0 0 0 0 0 0 0 0 0 0 0 0 0 0 0 0 0 0 0 0 0 0 0 0 0 0 0 0 0 0 0 0 0 0 0 0 0 228 228 229 229 229 229 229 229 229 229 229 229 229 229 229 229 229 229 229 229 228 228 229 229 229 229 229 230 230 230 230 231 231 231 231 231 231 231 231 231 231 232 232 233 234 234 236 236 238 239 239 240 241 241 242 243 244 244 245 246 247 247 248 249 249 250 252 253 255 256 258 259 260 260 260 261 261 261 261 262 262 262 263 264 0 0 0 0 0 0 0 0 0 0 0 0 321 322 322 323 323 324 325 327 0 0 0 336 337 339 340 341 343 344 345 346 348 351 353 356 358 361 363 365 367 369 371 372 373 375 377 378 380 382 383 385 385 386 0 0 0 0 0 0 0 0 0 0 0 0 0 327 327 327 326 326 326 325 324 323 322 320 0 317 315 313 312 311 311 311 310 310 310 309 309 309 309 309 308 308 307 307 307 306 306 306 305 305 305 305 305 305 305 305 305 304 304 304 305 305 305 305 305 305 305 305 305 305 305 305 306 306 307 307 308 309 309 310 310 311 311 311 311 311 312 312 312 312 312 313 313 0 0 0 0 866 866 868 869 869 870 870 871 871 871 870 870 869 869 868 868 866 865 864 863 862 859 858 858 856 854 853 852 851 850 849 849 849 847 849 849 849 850 849 849 847 846 845 845 843 843 842 842 841 839 838 837 836 836 835 835 835 834 834 834 833 832 830 829 828 826 825 824 823 822 821 819 818 817 817 816 815 815 815 814 813 813 812 811 810 809 809 808 807 806 805 805 803 802 802 802 801 801 801 801 801 802 802 802 802 802 801 801 801 800 799 798 797 796 795 794 792 791 791 790 790 789 789 788 788 788 787 787 787 786 787 786 786 785 784 784 782 781 779 778 776 774 773 771 770 770 770 769 769 768 768 768 768 767 766 766 765 764 763 762 761 760 758 757 756 755 755 753 752 750 749 748 747 746 745 745 745 744 744 743 743 743 742 742 742 741 741 740 739 738 737 737 737 736 735 735 734 733 732 732 731 731 730 729 729 728 728 727 727 727 726 726 726 725 725 726 725 725 725 725 725 725 725 725 725 725 725 724 725
0 0 0 0 0 0 0 0 0 0 0 0 0 0 0 0 0 0 0 0 1745 1740 1740 1735 1735 1730 1726 1721 1721 1726 1721 1721 0 0 0 0 0 0 0 0 0 0 0 0 0 0 0 0 0 705 705 706 706 706 708 709 711 712 713 714 0 0 0 0 0 0 0 0 0 0 0 0 0 0 0 0 0 0 0 0 0 732 0 0 0 0 0 0 0 0 0 0 0 0 0 0 0 0 0 0 0 0 0 0 0 0 0 0 0 0 0 0 0 0 0 0 0 0 0 0 0 0 0 0 0 0 0 0 0 0 0 0 0 0 0 0 0 0 0 0 0 0 0 0 0 0 0 0 0 0 0 0 0 0 0 0 0 0 0 0 0 0 0 0 0 0 0 0 0 228 228 228 228 228 228 228 228 228 228 228 229 229 229 229 229 228 228 228 228 228 228 228 228 227 227 227 227 227 227 227 227 228 228 229 229 229 230 230 230 230 230 230 230 230 231 231 231 231 232 232 233 234 235 236 237 238 239 240 241 241 242 243 244 244 245 246 246 247 248 249 249 250 252 253 255 256 257 258 259 260 260 260 261 261 261 261 262 262 263 263 265 0 0 0 0 0 0 0 0 0 0 0 321 321 322 322 323 324 325 0 0 0 0 336 338 339 340 341 343 344 345 347 348 0 0 0 358 361 363 364 367 369 371 372 374 375 377 379 0 0 384 385 386 387 0 0 0 0 0 0 0 0 0 0 0 0 0 0 327 327 327 326 326 325 325 324 322 0 0 317 315 314 312 312 311 311 311 310 310 310 310 309 309 309 309 308 308 307 307 307 306 306 306 305 305 305 305 305 305 305 305 305 305 305 305 305 305 305 305 305 305 305 306 306 306 306 306 307 307 308 308 309 310 310 311 311 311 311 311 312 312 312 312 312 312 312 312 0 0 0 0 866 866 868 869 869 870 870 870 870 870 870 870 869 869 868 868 866 865 864 863 862 860 859 858 857 856 854 852 851 851 850 850 850 849 849 849 849 849 849 847 846 846 845 844 843 842 842 841 839 839 838 837 837 836 836 835 835 834 834 834 833 832 830 829 828 826 825 824 823 822 821 819 818 817 816 816 816 815 814 814 814 813 813 812 810 809 809 807 807 805 805 803 802 802 802 802 802 801 801 802 802 803 803 803 803 803 802 802 801 800 799 798 797 796 794 793 792 791 790 790 790 789 789 788 788 788 788 787 787 787 787 787 786 786 785 784 783 781 779 778 776 774 772 771 770 770 769 768 768 768 768 767 767 767 766 765 764 763 762 761 760 759 758 757 756 755 755 753 752 751 750 749 748 747 746 746 745 745 745 745 745 745 744 743 743 742 741 740 739 738 737 737 736 736 735 734 734 733 732 731 731 730 729 729 728 727 727 727 726 726 725 725 725 725 725 725 725 725 725 725 725 725 725 725 725 725 725 724 724
0 0 0 0 0 0 0 0 0 0 0 0 0 0 0 0 0 0 0 0 1745 1740 1735 1730 1730 1726 1721 1721 1716 1716 1716 1716 0 0 0 0 0 0 0 0 0 0 0 0 0 0 0 0 0 702 703 704 704 705 706 707 710 710 711 0 0 0 0 0 0 0 0 0 0 0 0 0 0 0 0 0 0 0 0 0 0 0 0 0 737 0 0 0 0 0 0 0 0 0 0 0 0 0 0 0 0 0 0 0 0 0 743 746 0 0 0 0 0 0 0 0 0 0 0 0 0 0 0 0 0 0 0 0 0 0 0 0 0 0 0 0 0 0 0 0 0 0 0 0 0 0 0 0 0 0 0 0 0 0 0 0 0 0 0 0 0 0 0 0 0 0 0 0 227 227 227 227 227 228 227 228 228 228 228 228 228 228 228 228 228 228 228 228 228 227 227 227 227 226 226 226 226 226 226 226 226 227 227 227 228 228 229 229 229 230 230 230 230 230 230 230 231 231 231 232 233 234 235 236 237 238 239 240 241 241 242 243 244 244 245 246 246 247 248 249 249 250 252 253 254 256 257 258 259 259 260 260 261 261 261 261 261 261 262 262 263 264 0 0 0 0 0 0 0 0 0 0 320 321 322 322 323 324 326 0 0 0 0 337 339 339 341 342 343 344 346 347 349 0 0 0 358 361 362 364 366 368 370 372 374 375 377 379 0 0 384 385 386 387 388 0 0 0 0 0 0 0 0 0 0 0 0 0 327 327 327 327 326 326 325 324 323 321 319 317 316 314 313 312 311 311 311 311 310 310 310 310 309 309 309 308 308 308 307 307 307 306 306 306 305 305 305 305 305 305 305 305 305 305 305 305 305 305 305 305 306 306 306 306 306 307 307 307 308 308 309 310 310 311 311 311 311 312 312 312 312 312 312 312 313 312 313 0 0 0 0 866 866 869 869 870 870 871 871 870 870 870 870 869 869 868 868 866 866 865 864 863 860 859 858 857 857 856 853 853 852 851 851 850 850 849 849 849 849 847 847 846 845 844 843 842 842 841 841 839 839 839 838 837 837 837 836 835 835 835 834 833 832 830 829 828 826 825 824 823 822 821 819 818 817 817 816 816 815 815 815 814 813 813 812 810 810 808 807 806 805 805 803 802 802 801 801 802 802 802 803 803 803 805 805 806 805 803 802 802 801 799 798 797 796 795 794 792 791 791 790 790 789 789 789 788 788 788 788 787 787 787 787 786 785 784 783 782 781 779 777 775 773 772 771 770 769 769 768 768 768 767 767 767 766 766 765 764 763 762 761 760 759 758 757 756 755 755 754 753 752 751 750 750 749 748 748 747 747 746 746 745 745 745 745 744 743 742 741 740 739 738 737 737 735 735 734 733 732 731 731 730 729 729 728 727 726 726 726 725 725 725 725 725 725 725 725 725 725 724 724 724 725 725 725 725 725 725 724 724
0 0 0 0 0 0 0 0 0 0 0 0 0 0 0 0 0 0 0 0 1745 1740 1730 1730 1730 1726 1716 1716 1711 1716 1716 1716 0 0 0 0 0 0 0 0 0 0 0 0 0 0 0 0 0 702 702 702 702 703 705 706 707 709 0 0 0 0 0 0 0 0 0 0 0 0 0 0 0 0 0 0 0 0 0 0 0 0 0 0 0 0 0 0 0 0 0 0 0 0 0 0 0 0 0 0 0 0 0 0 0 0 0 0 0 0 0 0 0 0 0 0 0 0 0 0 0 0 0 0 0 0 0 0 0 0 0 0 0 0 0 0 0 0 0 0 0 0 0 0 0 0 0 0 0 0 0 0 0 0 0 0 0 0 0 0 0 0 0 0 0 0 227 227 227 227 227 227 227 227 227 227 227 228 228 228 228 228 228 228 228 227 227 227 227 227 227 226 226 226 225 225 225 225 225 225 225 226 226 227 227 227 228 228 229 229 229 229 230 230 230 230 231 231 231 232 233 233 234 235 237 238 239 240 241 242 242 243 244 244 245 246 246 247 248 249 249 250 252 253 254 255 257 258 259 259 260 260 260 261 261 261 261 261 261 261 262 262 262 0 0 0 0 0 0 0 0 0 320 321 321 322 323 324 326 328 0 0 335 337 339 340 341 342 343 344 346 347 349 351 353 355 358 360 362 364 366 368 370 372 374 375 377 379 381 383 384 385 386 387 0 0 0 0 0 0 0 0 0 0 0 0 0 0 328 328 328 327 327 326 325 325 323 321 320 318 316 314 313 313 312 311 311 311 310 310 310 310 310 309 309 309 308 308 307 307 307 306 306 306 306 305 305 305 305 305 305 305 305 305 305 305 305 306 306 306 306 306 307 307 307 307 308 308 308 309 310 310 311 311 311 312 312 312 312 312 313 313 313 313 313 313 313 0 0 0 0 868 868 869 870 870 870 871 871 871 870 870 870 869 869 868 868 866 866 865 864 863 862 860 859 858 857 857 856 854 853 852 852 851 850 850 849 849 847 847 846 845 844 843 842 842 841 841 841 841 839 839 839 838 838 838 837 837 836 835 834 834 833 832 830 828 827 825 824 823 822 821 819 819 818 818 817 816 816 816 815 814 814 813 812 811 810 808 808 806 805 803 803 802 802 801 801 802 802 802 805 805 806 806 807 807 806 805 805 803 802 800 798 797 796 795 794 793 792 791 790 790 790 789 789 789 788 788 788 788 787 787 787 786 785 784 783 782 780 778 776 774 773 772 770 770 769 768 768 768 768 767 766 766 766 765 765 764 763 762 761 760 759 758 757 756 755 755 755 754 753 752 751 751 750 750 750 749 749 748 748 747 747 746 745 745 744 743 742 741 739 738 737 737 735 735 734 733 732 731 731 730 729 728 727 726 726 725 725 725 725 724 724 724 724 724 724 724 724 724 724 724 724 724 724 724 724 724 724 724
0 0 0 0 0 0 0 0 0 0 0 0 0 0 0 0 0 0 0 0 0 1740 1735 1730 1730 1721 1721 1716 1711 1711 1711 1711 1711 0 0 0 0 0 0 0 0 0 0 0 0 0 0 0 0 0 701 702 702 703 704 705 0 0 0 0 0 0 0 0 0 0 0 0 0 0 0 0 0 0 0 0 0 0 0 0 0 0 0 0 0 0 0 0 0 0 0 0 0 0 0 0 0 0 0 0 0 0 0 0 0 0 0 0 0 0 0 0 0 0 0 0 0 0 0 0 0 0 0 0 0 0 0 0 0 0 0 0 0 0 0 0 0 0 0 0 0 0 0 0 0 0 0 0 0 0 0 0 0 0 0 0 0 0 225 225 225 225 226 226 226 226 226 226 227 227 227 227 227 227 227 227 227 227 227 227 227 227 227 227 227 227 226 226 226 226 225 225 225 225 224 224 224 224 224 224 225 225 225 226 226 227 227 227 228 228 229 229 229 230 230 230 230 231 231 232 232 233 234 235 236 238 239 240 241 242 243 243 244 245 245 246 247 247 248 249 249 250 252 253 254 255 257 258 259 259 260 260 260 261 261 261 261 261 261 261 260 260 260 0 0 0 0 0 0 0 319 319 320 321 321 322 323 325 326 328 330 333 335 338 339 340 341 342 343 345 346 347 349 351 353 355 358 360 362 364 366 368 370 372 374 375 377 379 381 383 384 385 387 0 0 0 0 0 0 0 0 0 0 0 0 0 0 0 328 328 327 327 327 326 326 325 323 322 320 0 316 315 313 313 312 312 311 311 311 310 310 310 310 310 309 309 309 308 308 307 307 307 306 306 306 306 306 306 305 305 305 305 305 305 305 305 306 306 306 306 307 307 307 307 307 308 308 309 309 309 310 311 311 312 312 312 313 313 313 313 313 313 313 313 313 313 313 0 0 0 0 868 868 869 870 870 871 871 871 871 871 871 870 870 869 869 868 868 866 865 864 863 862 860 860 859 858 857 856 856 854 853 853 852 851 850 849 847 847 847 846 845 844 843 842 842 841 841 841 841 841 841 841 841 841 839 839 838 837 836 836 835 833 832 830 828 827 826 825 824 823 822 821 821 819 818 817 817 817 816 816 815 814 814 813 811 810 809 808 806 805 803 803 802 802 801 801 802 803 803 805 806 807 808 808 808 807 807 806 803 802 801 799 797 796 795 794 793 792 791 791 790 790 790 789 789 788 788 788 788 787 787 786 786 785 784 782 781 779 778 775 774 773 771 770 770 769 768 768 768 768 767 766 766 766 765 765 764 763 762 762 761 760 759 758 757 756 755 755 754 754 753 753 752 752 751 751 751 750 750 749 749 748 747 747 746 745 744 743 741 739 738 737 737 735 734 734 733 732 731 730 729 728 727 727 726 725 725 725 725 724 724 724 724 723 723 723 723 723 723 723 723 723 724 724 724 724 724 723 723
0 0 0 0 0 0 0 0 0 0 0 0 0 0 0 0 0 0 0 0 0 0 1730 1730 1726 1721 1716 1711 1711 1711 1711 1711 1716 0 0 0 0 0 0 0 0 0 0 0 0 0 0 0 0 0 0 0 701 701 0 0 0 0 0 0 0 0 0 0 0 0 0 0 0 0 0 0 0 0 0 0 0 0 0 0 0 0 0 0 0 0 0 0 0 0 0 0 0 0 0 0 0 0 0 0 0 0 0 0 0 0 0 0 0 0 0 0 0 0 0 0 0 0 0 0 0 0 0 0 0 0 0 0 0 0 0 0 0 0 0 0 0 0 0 0 0 0 0 0 0 0 0 0 0 0 0 0 0 0 0 0 0 0 0 0 225 225 225 225 225 226 226 226 226 226 227 227 227 227 227 227 227 227 227 227 226 226 226 226 226 225 225 225 225 225 224 224 224 224 224 223 223 223 224 224 224 224 224 225 225 225 226 227 227 228 228 229 229 229 230 230 230 231 231 232 232 233 234 235 236 237 239 240 241 242 243 244 244 245 245 246 247 247 248 249 249 250 252 253 254 255 256 257 259 259 260 260 260 261 261 261 261 260 260 260 260 0 260 0 0 0 0 0 0 318 319 319 320 321 321 323 323 325 326 328 330 333 335 338 339 340 341 342 343 345 346 348 349 351 353 355 358 360 362 364 366 368 370 372 373 375 377 379 381 383 384 386 387 0 0 0 0 0 0 0 0 0 0 0 0 0 0 0 328 328 328 327 327 326 325 324 323 322 0 0 317 315 314 313 312 312 311 311 311 310 310 310 310 310 309 309 309 308 308 307 307 307 307 306 306 306 306 306 306 306 306 306 306 306 306 306 306 306 306 307 307 307 307 308 308 308 309 309 309 310 311 311 312 312 313 313 313 313 313 314 314 314 313 314 314 313 313 0 0 0 0 869 869 870 870 871 873 873 873 873 871 871 871 870 870 869 869 868 866 865 864 863 862 860 860 859 858 858 857 856 854 854 853 852 851 850 849 847 847 846 845 845 844 843 842 842 841 841 842 842 842 842 842 842 842 842 841 839 838 837 836 835 834 833 830 829 827 826 825 824 823 823 822 821 819 819 818 818 818 817 817 816 815 814 814 812 811 810 809 807 806 805 803 803 802 802 802 803 803 805 806 807 808 809 809 809 809 807 807 805 802 801 799 797 796 795 794 793 792 791 791 791 790 790 789 789 789 789 788 788 788 787 786 786 785 783 782 780 778 776 775 774 772 771 770 770 769 769 768 768 768 767 767 767 766 766 765 765 764 763 763 762 761 760 759 758 757 756 756 755 755 755 754 754 753 753 753 752 752 751 751 750 750 749 748 747 745 745 743 742 740 738 737 737 736 734 733 733 731 731 730 729 728 727 726 725 725 725 725 724 724 724 724 723 723 723 723 722 722 723 723 723 723 723 723 723 723 723 723 723
0 0 0 0 0 0 0 0 0 0 0 0 0 0 0 0 0 0 0 0 0 0 0 1726 1721 1721 1721 1716 1716 1711 1716 1716 1716 0 0 0 0 0 0 0 0 0 0 0 0 0 0 0 0 0 0 0 0 0 0 0 0 0 0 0 0 0 0 0 0 0 0 0 0 0 0 0 0 0 0 0 0 0 0 0 0 0 0 0 0 0 0 0 0 0 0 0 0 0 0 0 0 0 0 0 0 0 0 0 0 0 0 0 0 0 0 0 0 0 0 0 0 0 0 0 0 0 0 0 0 0 0 0 0 0 0 0 0 0 0 0 0 0 0 0 0 0 0 0 0 0 0 0 0 0 224 224 224 224 224 224 224 224 224 224 224 225 225 225 225 225 225 225 225 226 226 226 226 226 226 226 226 226 226 225 225 225 225 225 225 224 224 224 224 223 223 223 223 223 223 223 223 223 223 223 223 223 223 224 224 225 225 226 227 227 228 229 229 229 230 230 230 231 231 232 232 233 234 235 236 237 239 240 241 242 243 244 244 245 245 246 247 247 248 249 250 250 252 253 254 255 256 257 258 259 260 260 260 260 260 260 260 260 260 260 259 0 259 0 0 0 0 0 0 318 318 319 320 320 322 323 324 325 327 329 331 333 335 337 339 340 341 342 344 345 346 348 350 352 353 355 358 360 362 364 365 368 369 372 374 375 377 379 381 383 385 386 387 0 388 0 0 0 0 0 0 0 0 0 0 0 0 0 0 328 328 327 327 326 325 325 324 322 320 319 317 316 314 313 312 312 312 311 311 311 310 310 310 310 309 309 309 308 308 308 307 307 307 307 306 306 306 306 306 306 306 306 306 306 306 306 306 307 307 307 307 307 308 308 308 309 309 309 310 311 311 312 312 313 313 313 314 314 314 314 314 314 314 314 314 314 314 0 0 0 0 869 869 871 871 873 873 874 873 874 874 873 873 871 870 870 869 869 868 866 865 864 863 862 860 859 859 858 858 857 856 854 853 852 851 850 849 849 847 846 846 845 844 844 843 843 842 843 842 843 843 843 843 843 843 843 842 841 839 838 837 835 834 833 832 829 828 826 825 824 824 823 822 821 821 819 819 819 818 818 818 817 817 815 814 814 812 811 809 808 807 805 805 803 803 802 802 803 805 805 807 807 808 809 810 810 809 808 807 806 803 801 800 797 796 795 794 793 792 792 791 791 791 790 790 789 789 789 788 788 787 787 786 785 784 783 781 780 778 776 775 774 772 771 770 770 769 769 769 769 768 768 768 767 767 767 766 766 765 765 764 763 762 761 760 759 758 757 756 756 755 755 755 755 755 754 754 753 753 752 752 751 750 750 749 748 746 745 744 742 741 739 737 737 736 734 733 732 731 731 730 728 728 727 726 725 725 725 724 724 724 724 723 723 722 722 722 722 722 722 723 723 722 723 723 722 723 723 723 722
