2714 2708 2704 2699 2697 2700 2701 2717 2721 2729 2738 2739 2743 2748 2761 2763 2764 2752 2752 2752 2749 2749 2749 2749 2748 2748 2747 2749 2748 2750 2753 2751 2753 2755 2754 2760 2765 2764 2766 2765 2768 2769 2769 2769 2770 2771 2772 2772 2772 2771 2771 2772 2772 2773 2774 2774 2774 2775 2775 2776 2779 2783 2783 2783 2784 2782 2781 2781 2781 2781 2778 2778 2778 2774 2774 2767 2757 2755 2748 2743 2743 2736 2735 2731 2727 2722 2714 2706 2698 2681 2671 2662 2653 2639 2623 2597 2582 2572 2559 2545 2535 2525 2501 2489 2478 2470 2463 2451 2430 2424 2419 2005 2000 1603 481 474 468 461 456 451 440 438 436 436 435 435 433 431 430 430 428 428 431 432 430 429 429 429 425 426 425 425 425 424 424 423 426 427 428 428 431 432 438 440 443 443 447 450 449 449 448 448 448 447 447 446 446 445 443 441 436 434 430 425 425 421 416 414 413 414 414 412 413 413 412 412 413 413 412 412 407 408 408 409 408 408 407 407 406 406 404 404 403 403 402 400 400 398 399 393 393 393 391 390 390 386 386 385 385 384 384 384 383 381 380 380 380 381 380 380 378 377 375 373 369 367 365 362 361 361 357 350 350 350 348 347 347 346 340 338 337 337 335 334 334 335 335 333 331 327 326 324 324 320 318 316 312 310 310 310 308 306 305 304 304 304 305 304 304 305 306 306 305 305 306 307 307 308 307 302 300 299 301 299 300 298 298 297 298 299 299 298 298 296 294 293 290 288 288 286 291 294 299 303 309 314 321 333 339 349 356 359 367 379 385 391 396 402 405 412 415 417 417 420 420 422 420 421 422 422 422 425 429 430 431 431 430 435 437 438 441 443 445 447 448 449 450 448 448 446 442 440 439 441 441 440 440 440 439 442 443 443 442 443 444 442 442 440 436 434 427 427 425 423 419 414 412 410 408 409 407 406 403 396 390 385 381 376 369 359 352 347 343 341 339 337 335 334 334 335 335 338 342 346 346 352 356 358 360 360 359 357 356 356 355 355 354 355 355 351 349 341 335 333 326 324 321 317 313 308 304 302 300 297 294 292 290 292 291 291 292 291 291 289 288 288 288 287 287 284 281 277 275 271 269 269 268 265 263 262 262 261 262 265 265 266 274 281 292 302 323 347 405 437 471 503 542 581 614 680 708 730 749 765 780 802 809 816 817 815 808 793 758 745 457
2678 2676 2672 2662 2662 2669 2671 2678 2688 2706 2715 2716 2724 2732 2738 2748 2751 2752 2752 2752 2750 2749 2736 2735 2735 2736 2736 2736 2737 2740 2743 2744 2745 2746 2749 2755 2758 2758 2759 2759 2761 2764 2764 2764 2763 2765 2766 2765 2765 2765 2764 2766 2765 2766 2768 2767 2767 2767 2768 2769 2772 2776 2776 2776 2777 2775 2775 2774 2774 2774 2772 2771 2771 2771 2770 2767 2762 2757 2748 2744 2744 2736 2733 2732 2727 2723 2715 2707 2699 2690 2672 2663 2654 2643 2628 2619 2589 2580 2565 2550 2541 2531 2519 2495 2482 2470 2464 2452 2439 2423 2416 2408 2403 2403 894 467 460 453 447 441 436 429 427 427 426 426 426 425 426 427 427 426 431 432 430 429 429 429 425 423 424 424 424 423 423 422 425 426 427 427 430 431 432 436 439 440 444 447 447 446 446 445 445 445 444 442 441 441 439 437 432 432 426 422 420 415 412 411 411 412 411 409 411 410 409 409 410 410 409 409 407 408 408 409 408 405 407 404 405 405 403 403 402 401 401 399 399 397 396 391 390 390 388 388 387 385 383 382 382 382 381 381 380 378 378 377 377 377 376 375 373 373 371 369 365 363 361 358 357 357 352 344 344 344 342 341 341 340 340 338 337 337 332 332 331 332 332 330 330 326 325 325 323 319 317 315 311 309 307 307 305 303 302 302 301 301 301 300 300 301 300 300 299 299 300 301 302 304 303 301 299 298 298 298 299 297 296 297 297 298 298 297 297 295 293 292 290 288 288 286 286 288 293 297 302 306 320 326 332 341 349 353 363 376 383 389 393 399 402 411 414 417 416 419 420 423 421 422 423 423 422 424 428 427 430 428 429 434 438 439 440 442 445 446 450 451 451 450 452 450 446 442 442 441 441 440 440 439 443 444 445 443 443 444 444 442 441 439 434 432 426 424 421 419 418 413 411 409 407 408 406 406 398 395 389 384 381 375 368 358 351 346 342 340 338 334 334 333 333 334 334 340 341 345 345 351 356 357 358 357 357 357 356 356 355 355 358 359 357 352 345 341 336 334 327 324 320 313 312 307 303 301 299 294 293 291 289 291 289 289 289 289 288 286 286 286 285 284 284 282 278 276 269 269 268 266 266 262 258 258 257 257 258 261 261 265 269 277 288 302 323 374 405 436 470 504 543 614 649 680 707 730 751 766 793 803 811 815 816 816 793 778 758 738 667
2642 2642 2640 2637 2625 2633 2640 2649 2660 2674 2683 2698 2706 2714 2721 2729 2732 2739 2739 2738 2737 2736 2736 2735 2735 2736 2736 2727 2729 2731 2734 2735 2738 2740 2741 2748 2753 2752 2752 2753 2753 2756 2757 2757 2756 2758 2757 2759 2758 2758 2758 2759 2760 2760 2761 2761 2760 2760 2761 2761 2765 2770 2769 2769 2770 2770 2768 2768 2767 2767 2765 2765 2765 2764 2764 2763 2758 2755 2753 2744 2744 2736 2733 2732 2724 2720 2716 2708 2700 2692 2683 2664 2655 2644 2629 2621 2608 2595 2571 2556 2546 2538 2527 2512 2488 2476 2465 2455 2442 2432 2417 2407 2399 2395 2397 1259 451 444 438 434 429 425 421 421 421 420 421 421 421 426 426 425 430 431 431 430 429 429 425 423 425 424 424 424 423 423 424 425 426 426 429 430 431 434 438 439 443 445 444 444 445 444 444 444 443 443 440 440 438 434 429 429 423 420 418 413 409 409 407 409 409 407 408 408 407 406 406 406 407 406 406 405 405 406 406 405 407 404 405 404 402 402 401 401 400 398 398 396 395 392 389 389 387 387 385 383 380 380 379 379 379 378 379 377 377 376 376 376 375 373 371 370 368 366 366 359 358 355 353 353 347 342 341 341 339 339 337 336 335 333 333 333 332 332 331 332 332 326 325 322 321 321 319 317 315 314 310 308 306 306 304 302 299 299 299 298 298 297 297 296 296 296 295 295 296 297 298 299 299 298 298 297 297 297 298 296 295 296 296 297 297 296 294 291 288 288 286 284 282 280 286 288 293 297 302 300 314 320 326 336 343 349 368 372 380 386 391 397 399 408 413 416 415 417 418 420 420 421 422 427 425 426 427 426 431 429 432 436 440 442 443 444 445 448 452 453 455 454 456 454 450 446 446 445 445 444 444 443 443 444 445 443 442 443 441 439 439 438 433 429 427 425 421 419 419 412 410 408 406 407 405 405 397 394 390 385 380 374 364 357 350 345 341 339 335 333 333 333 332 333 336 339 340 343 344 350 356 357 360 361 361 361 360 359 359 359 358 359 357 352 351 345 340 335 328 324 315 312 311 306 303 301 295 293 292 290 288 290 287 287 287 286 287 285 285 284 284 283 283 281 279 273 270 268 267 265 265 259 257 255 255 255 256 257 258 261 265 273 284 300 343 370 403 436 470 504 580 614 650 683 710 733 764 779 791 801 809 815 816 809 794 779 757 734 711
2615 2616 2614 2609 2593 2585 2609 2620 2636 2651 2660 2671 2691 2699 2706 2714 2717 2723 2726 2725 2723 2723 2723 2723 2725 2728 2728 2727 2729 2728 2731 2730 2733 2734 2736 2737 2743 2746 2747 2747 2746 2749 2750 2750 2750 2751 2751 2752 2752 2751 2751 2752 2753 2753 2754 2754 2753 2753 2754 2754 2755 2758 2763 2762 2764 2763 2761 2761 2761 2760 2758 2758 2758 2757 2757 2757 2752 2748 2746 2741 2737 2732 2727 2727 2724 2723 2716 2708 2700 2691 2683 2673 2665 2645 2630 2622 2609 2599 2591 2562 2552 2544 2532 2518 2505 2480 2470 2459 2446 2436 2426 2410 2401 2398 2396 2391 2387 2382 2380 1994 1594 1590 1198 415 415 414 419 418 419 424 425 426 430 431 431 432 430 430 429 427 425 425 424 424 423 423 426 424 425 425 427 429 430 433 437 440 442 442 442 443 444 443 443 442 442 442 440 439 435 432 430 429 427 419 417 412 410 409 407 410 409 407 408 408 408 407 407 406 407 407 407 406 404 405 405 404 405 403 404 404 402 402 401 401 399 399 397 395 394 391 388 388 386 386 384 382 379 379 378 378 378 377 377 376 376 375 375 375 374 372 370 369 367 365 365 356 356 352 350 350 343 337 337 337 336 336 334 333 331 329 329 328 328 328 327 326 326 326 325 322 321 318 316 312 310 310 306 304 302 302 300 298 294 293 293 292 292 292 291 290 290 290 289 290 292 293 294 295 296 296 295 296 298 297 298 296 296 297 296 296 296 295 293 286 286 284 283 281 279 276 280 283 287 291 296 300 314 320 326 330 337 343 364 368 376 382 386 392 400 404 410 415 414 416 417 421 421 420 423 428 430 430 429 429 433 431 434 442 444 446 447 448 449 455 456 458 459 458 460 458 452 448 448 446 446 445 444 444 444 445 445 443 442 443 441 439 439 434 427 427 425 421 419 419 418 411 409 407 405 406 404 400 397 393 389 386 381 368 366 360 354 347 344 340 338 336 335 335 335 336 338 340 344 344 347 354 358 360 361 362 362 361 361 360 360 359 359 360 355 354 351 345 340 335 329 321 316 313 311 305 303 298 294 292 292 290 288 287 286 286 286 287 287 286 285 285 286 286 285 283 279 276 272 270 268 266 264 262 260 258 256 255 256 256 259 262 268 275 301 318 342 371 404 437 473 546 583 617 650 683 710 749 764 777 789 799 805 814 814 809 793 780 758 705 689
2467 2497 2525 2555 2556 2541 2555 2572 2607 2627 2638 2652 2666 2675 2692 2699 2702 2708 2711 2711 2709 2708 2710 2709 2712 2712 2716 2716 2717 2718 2723 2726 2733 2734 2736 2737 2736 2739 2739 2740 2739 2742 2744 2743 2743 2744 2744 2745 2745 2744 2744 2745 2747 2746 2748 2747 2747 2746 2748 2747 2749 2752 2756 2755 2757 2756 2755 2754 2754 2753 2752 2751 2751 2751 2750 2750 2745 2741 2739 2734 2731 2726 2720 2720 2717 2716 2713 2713 2699 2691 2683 2673 2665 2654 2632 2623 2610 2600 2592 2579 2558 2548 2536 2522 2509 2496 2473 2461 2450 2442 2433 2425 2409 2400 2397 2390 2383 2381 2374 2373 2369 2369 2367 2365 1975 408 413 412 420 426 427 430 434 437 436 438 437 436 436 434 432 429 428 427 427 427 426 424 425 425 427 426 427 430 431 437 440 439 439 440 443 442 442 441 441 441 439 438 434 431 429 428 426 421 416 410 408 408 406 407 408 408 409 409 408 408 407 407 408 408 407 407 404 406 405 403 404 404 403 403 401 401 400 400 399 399 397 395 393 390 388 387 385 384 383 381 379 378 377 377 377 376 376 373 373 373 372 372 372 369 367 367 365 363 361 354 353 348 346 344 337 333 333 332 332 332 331 331 329 327 328 327 325 325 324 324 323 323 323 321 318 318 316 312 310 310 302 300 298 297 295 293 288 287 287 286 286 286 285 285 284 284 285 286 287 288 290 291 292 292 293 294 295 296 297 295 295 296 295 295 295 294 292 285 283 281 279 277 275 271 274 277 280 286 290 296 310 316 322 330 337 343 364 364 372 378 382 388 396 402 406 411 410 412 416 417 418 418 421 425 426 427 427 426 431 431 433 441 444 445 446 449 450 456 457 458 460 459 460 455 453 451 449 447 446 446 445 445 445 446 445 443 443 442 440 437 435 434 427 427 425 422 420 419 412 410 410 406 404 405 403 399 396 392 389 387 378 371 367 360 355 348 343 341 339 335 334 334 334 335 337 339 343 343 344 356 356 359 360 361 361 360 360 359 359 359 358 359 355 355 351 346 341 336 325 321 316 313 311 311 307 303 301 299 297 294 291 291 290 290 290 291 290 290 289 287 287 287 284 282 280 277 273 271 269 267 264 262 260 258 256 256 257 257 259 262 268 286 303 322 346 374 406 474 509 548 584 618 652 684 732 748 764 777 789 799 811 814 815 810 796 783 735 707 683
2040 2148 2261 2282 2460 2499 2515 2537 2557 2577 2615 2634 2649 2658 2669 2677 2687 2693 2696 2696 2696 2694 2695 2696 2699 2699 2703 2703 2709 2710 2713 2717 2722 2725 2729 2730 2736 2739 2739 2740 2733 2736 2737 2737 2736 2736 2737 2738 2738 2738 2737 2737 2740 2739 2741 2740 2740 2740 2741 2741 2742 2745 2748 2749 2750 2750 2748 2747 2747 2747 2745 2744 2744 2744 2744 2743 2743 2734 2733 2728 2724 2724 2719 2713 2710 2710 2706 2706 2702 2689 2681 2671 2663 2654 2646 2623 2610 2600 2593 2580 2569 2552 2541 2526 2513 2500 2487 2465 2454 2444 2436 2428 2419 2403 2399 2391 2384 2382 2376 2372 2368 2368 2361 2358 2359 802 408 408 419 426 428 430 436 437 437 438 438 437 437 435 433 429 429 428 426 426 425 423 424 424 425 426 427 430 431 433 439 440 440 441 440 442 441 442 442 441 439 439 435 431 429 427 425 422 415 409 409 407 405 406 407 407 408 408 407 407 406 406 407 406 406 406 405 405 404 402 403 403 401 402 400 400 399 399 398 398 396 394 393 390 388 387 385 383 381 380 378 377 376 376 376 375 375 372 372 372 371 371 371 368 365 364 362 360 358 353 351 345 343 340 335 331 330 330 328 327 327 327 324 322 323 323 323 322 320 320 319 319 318 316 314 314 312 308 306 306 302 300 298 297 291 289 285 283 283 282 282 281 281 280 280 280 281 282 283 284 285 286 288 287 289 289 292 295 296 296 296 296 296 296 295 295 293 284 282 278 276 274 272 268 270 272 275 281 286 298 304 310 318 326 332 338 358 364 372 378 382 388 393 399 404 408 409 411 415 416 417 417 420 424 425 426 426 426 428 428 437 438 443 447 448 451 455 458 460 461 462 462 461 459 457 455 453 451 451 450 449 447 447 448 448 445 443 443 441 437 435 430 426 426 422 422 420 419 412 409 409 405 403 404 404 402 398 395 391 385 382 375 370 364 359 352 345 343 341 337 337 337 336 335 338 339 342 344 351 355 357 360 361 360 361 361 361 360 360 359 360 360 356 356 352 350 347 334 329 324 320 317 315 309 307 303 301 307 305 299 299 298 298 297 297 298 296 295 295 293 289 289 287 285 281 277 274 270 268 267 265 263 261 259 257 258 259 259 262 265 279 288 306 325 349 376 444 480 514 551 587 620 685 713 732 748 762 775 797 803 811 814 815 810 799 766 738 710 678
2030 2137 2251 2271 2293 2469 2483 2506 2530 2553 2577 2617 2634 2644 2654 2662 2670 2679 2681 2681 2682 2682 2683 2686 2689 2690 2695 2694 2696 2701 2708 2712 2715 2719 2722 2725 2729 2732 2732 2733 2733 2733 2737 2737 2729 2729 2730 2730 2731 2731 2731 2730 2732 2733 2734 2734 2733 2733 2733 2734 2735 2738 2741 2741 2740 2743 2741 2741 2740 2740 2740 2738 2737 2737 2737 2736 2736 2731 2726 2721 2717 2717 2712 2707 2703 2703 2699 2699 2695 2687 2677 2669 2661 2652 2644 2631 2611 2601 2593 2580 2569 2562 2542 2530 2519 2506 2493 2481 2458 2448 2440 2432 2423 2415 2402 2393 2385 2383 2376 2375 2369 2369 2362 2359 2357 2356 407 407 419 427 428 434 440 441 441 442 443 443 440 438 435 431 429 429 427 426 424 422 423 423 423 425 426 429 430 433 436 440 440 441 441 442 442 441 441 440 440 438 436 432 432 428 426 424 420 412 411 409 407 409 410 407 409 408 408 407 407 406 407 405 405 405 404 404 403 401 402 402 400 401 399 399 398 398 397 397 395 393 392 389 387 386 384 383 381 380 378 379 377 377 376 376 375 375 373 371 370 370 370 369 365 363 361 359 357 352 350 344 342 339 334 330 329 327 325 325 324 322 322 321 322 320 320 320 317 317 315 315 314 312 311 311 309 305 303 301 297 295 293 293 291 289 285 283 282 281 281 280 280 279 279 279 280 281 282 283 284 285 287 288 289 290 293 296 297 297 296 297 297 296 296 295 293 285 283 279 277 273 270 267 269 270 273 277 282 294 300 308 315 323 329 344 354 361 368 374 378 387 393 399 404 408 405 408 412 414 416 416 419 423 428 427 427 426 429 431 438 441 444 448 451 452 460 462 464 465 466 466 465 463 461 459 457 455 454 454 453 451 449 451 448 448 446 444 442 438 434 429 425 425 421 419 419 418 411 409 409 405 403 405 403 403 401 399 393 388 384 381 375 370 363 351 347 345 343 340 339 339 338 338 339 340 343 346 352 356 359 359 362 363 362 362 361 361 361 360 361 361 360 360 355 354 345 339 335 331 328 324 317 316 314 311 309 307 301 299 299 302 302 301 302 302 300 300 299 297 293 293 291 287 283 280 274 272 270 270 268 266 262 261 261 262 263 265 268 277 284 294 311 332 356 416 452 486 520 557 591 656 686 714 731 747 760 786 795 803 811 814 815 799 786 766 738 710 686
2235 1977 2031 2040 2122 2316 2365 2482 2508 2533 2557 2579 2601 2629 2640 2647 2655 2658 2664 2666 2668 2669 2670 2673 2674 2679 2685 2684 2689 2695 2696 2707 2710 2714 2717 2717 2718 2725 2725 2726 2726 2726 2729 2730 2729 2729 2730 2730 2731 2724 2724 2723 2725 2726 2726 2727 2727 2726 2726 2727 2727 2730 2732 2732 2732 2735 2734 2732 2732 2732 2731 2730 2729 2729 2728 2728 2728 2724 2721 2714 2710 2710 2705 2700 2700 2696 2692 2692 2689 2680 2675 2665 2658 2650 2642 2630 2624 2602 2594 2581 2570 2563 2553 2530 2519 2506 2498 2487 2475 2454 2446 2437 2429 2421 2412 2397 2389 2387 2379 2377 2374 2370 2363 2360 2358 2357 2359 1964 420 431 432 440 442 446 446 447 447 445 445 441 439 435 433 431 427 427 425 423 422 422 422 424 428 430 431 434 437 441 440 441 441 442 442 440 441 441 441 440 438 436 434 432 430 428 424 421 415 413 411 411 412 412 411 410 410 410 409 409 410 408 407 407 407 405 404 402 403 403 401 402 400 399 399 398 398 398 397 393 393 389 387 387 384 384 382 380 380 379 377 377 376 376 376 376 373 371 371 371 369 368 364 362 362 360 356 351 349 345 341 338 333 329 328 326 324 324 323 321 321 320 321 319 319 319 316 316 314 314 312 310 309 308 306 303 299 299 295 293 291 290 288 288 284 282 282 281 281 280 274 272 271 273 274 275 278 279 280 281 284 285 288 291 292 295 298 297 297 298 297 297 297 296 294 287 285 281 278 272 270 266 268 269 270 275 279 291 297 305 311 319 325 340 350 356 362 368 372 383 389 394 398 403 405 411 412 414 416 415 417 424 425 425 424 424 428 431 437 440 443 447 450 456 459 462 463 464 465 468 466 464 462 460 458 457 455 455 454 452 450 450 448 447 445 443 441 439 434 428 425 424 421 419 418 418 411 409 408 405 406 405 403 403 401 398 391 387 383 380 375 371 359 352 348 346 344 341 338 338 337 337 338 339 344 345 349 354 357 358 359 360 361 361 362 362 361 361 362 362 361 361 356 352 346 341 337 334 332 324 321 320 318 315 313 309 305 303 303 302 302 301 302 308 306 305 303 296 296 295 292 288 284 277 275 273 271 271 269 264 262 262 262 263 264 268 271 279 287 298 316 361 390 422 456 492 526 563 628 657 686 713 731 745 771 782 791 799 807 812 814 806 792 774 747 719 656
2223 1996 2087 2022 2075 2086 2097 2243 2468 2518 2544 2565 2586 2603 2614 2632 2640 2643 2649 2652 2652 2656 2659 2661 2663 2666 2672 2678 2682 2686 2686 2692 2703 2707 2710 2710 2711 2716 2718 2720 2719 2719 2722 2723 2723 2722 2724 2723 2725 2724 2724 2723 2725 2719 2719 2720 2720 2719 2719 2720 2720 2720 2724 2724 2723 2723 2723 2721 2720 2720 2720 2718 2718 2717 2717 2717 2716 2713 2709 2706 2700 2700 2695 2692 2691 2688 2684 2684 2682 2674 2668 2665 2655 2647 2641 2630 2623 2612 2595 2582 2571 2564 2554 2543 2523 2510 2498 2487 2475 2464 2451 2443 2435 2426 2418 2411 2395 2390 2383 2378 2376 2371 2364 2360 2358 2357 2355 2359 1202 438 439 448 449 452 453 451 452 450 448 446 441 437 435 432 428 428 425 423 423 423 422 422 427 429 430 431 434 437 439 440 440 441 441 440 441 441 441 440 439 437 436 434 432 430 425 421 416 414 413 413 414 412 413 413 412 412 412 410 410 408 408 408 407 405 404 402 404 403 401 403 400 400 399 399 399 398 396 392 392 390 388 388 385 385 383 381 380 380 378 377 377 376 376 376 373 370 370 370 368 367 363 360 359 357 354 350 348 344 340 335 332 328 327 324 323 323 321 320 320 319 320 318 318 318 315 315 313 311 311 309 308 307 305 302 298 296 292 290 287 285 283 282 278 278 277 277 277 275 274 272 271 273 273 274 275 276 279 280 283 284 287 291 293 295 298 298 299 300 300 299 299 298 295 288 284 280 277 271 269 265 267 268 269 272 276 289 295 301 307 315 321 336 344 350 356 362 368 381 387 391 396 400 403 410 412 413 416 415 417 424 424 426 424 423 428 430 436 439 442 445 449 455 460 463 464 465 466 469 468 466 464 464 462 460 458 457 457 453 451 450 448 446 446 442 440 435 431 428 424 424 420 418 417 417 410 408 408 403 405 404 402 402 400 393 391 387 383 382 379 368 361 354 351 349 347 341 341 340 340 339 341 343 343 346 350 355 358 360 360 361 362 362 361 361 362 362 363 362 362 362 358 352 352 348 343 339 334 330 328 328 326 322 318 316 312 310 310 310 309 308 308 308 306 305 298 300 300 298 294 289 283 281 279 277 275 275 271 269 267 266 266 267 270 272 275 283 293 307 346 370 397 430 464 499 571 598 631 658 687 711 745 758 771 780 790 797 811 814 816 807 797 783 733 704 674
1766 1546 1997 1696 1880 1969 2089 2234 2461 2485 2535 2557 2577 2590 2601 2610 2625 2630 2634 2637 2638 2643 2649 2651 2654 2657 2663 2668 2675 2678 2679 2687 2695 2696 2703 2703 2704 2709 2712 2711 2712 2712 2713 2716 2716 2716 2717 2717 2718 2718 2717 2717 2718 2719 2719 2720 2720 2713 2712 2714 2713 2713 2714 2716 2715 2715 2713 2711 2711 2710 2710 2708 2708 2707 2707 2707 2705 2701 2694 2691 2687 2686 2682 2680 2680 2679 2676 2675 2673 2665 2660 2658 2653 2641 2636 2628 2621 2611 2603 2582 2572 2563 2554 2544 2532 2511 2499 2491 2481 2470 2460 2443 2435 2426 2426 2419 2410 2397 2390 2385 2380 2373 2372 2361 2359 2357 2352 2354 2353 442 443 455 458 459 459 457 455 453 452 449 448 439 437 435 432 430 430 426 425 425 423 422 424 429 430 432 435 436 437 439 439 440 440 440 438 438 440 439 439 437 436 436 434 432 427 424 420 418 417 417 416 414 414 415 416 416 415 413 411 412 412 410 409 409 407 403 404 404 402 403 403 400 400 400 399 399 397 391 393 389 387 388 388 385 383 381 381 381 379 378 377 377 377 375 374 370 370 370 368 366 366 359 357 356 354 349 347 343 339 334 331 327 327 323 322 322 320 319 319 320 320 318 317 317 316 314 312 310 310 308 307 306 304 301 297 294 290 288 284 282 280 280 272 272 272 271 271 270 270 271 270 272 273 274 275 276 276 278 281 283 289 292 293 298 301 300 301 302 302 301 301 301 293 291 288 284 279 272 268 266 266 267 268 271 280 286 292 298 304 312 324 334 340 344 350 358 374 376 383 387 392 396 402 405 409 412 413 414 422 423 424 426 424 423 431 433 439 440 445 447 453 458 462 465 466 468 470 471 471 471 469 468 466 462 460 460 459 454 450 450 448 446 445 442 438 434 430 427 423 423 419 417 416 416 411 407 407 403 404 404 402 401 399 395 393 391 388 382 379 368 361 360 356 353 351 347 346 346 346 345 345 346 345 348 353 356 360 366 366 367 368 368 367 367 368 367 369 368 368 362 360 360 359 356 351 345 341 338 336 335 333 328 325 323 320 318 317 317 316 316 316 315 313 309 304 300 300 298 297 291 286 284 282 280 278 275 273 271 269 269 268 272 275 278 283 291 302 334 356 381 408 440 473 543 575 603 633 661 690 729 745 758 770 780 789 807 813 816 820 815 805 775 751 723 693
1766 1546 1997 1696 1629 1631 1936 2160 2178 2307 2504 2534 2570 2583 2594 2603 2607 2613 2621 2627 2628 2634 2636 2640 2647 2650 2656 2662 2665 2670 2674 2682 2688 2689 2694 2697 2698 2702 2705 2705 2706 2705 2707 2708 2708 2709 2709 2710 2709 2711 2710 2710 2710 2712 2712 2713 2713 2713 2713 2714 2713 2706 2706 2707 2707 2705 2703 2701 2701 2700 2700 2698 2698 2697 2697 2697 2695 2688 2681 2678 2674 2672 2672 2668 2668 2668 2664 2664 2664 2657 2653 2651 2646 2643 2634 2627 2621 2612 2604 2596 2573 2565 2555 2545 2533 2525 2503 2495 2487 2475 2467 2459 2442 2434 2426 2419 2410 2402 2399 2394 2387 2381 2374 2367 2360 2358 2352 2350 2348 1953 829 467 468 468 468 464 458 456 456 454 454 447 441 439 437 435 435 433 429 429 427 425 426 429 431 432 434 436 438 439 440 441 441 440 440 441 442 441 441 439 439 438 434 432 427 426 424 421 421 421 420 418 418 419 420 420 419 417 417 418 417 417 415 416 413 409 408 408 406 407 405 404 404 404 403 403 401 395 396 393 391 392 390 389 386 385 385 385 383 382 381 381 381 379 378 373 372 372 368 366 366 359 357 355 355 350 348 344 340 335 331 329 329 325 324 324 322 322 321 322 322 320 319 319 319 316 314 312 312 310 309 305 303 300 296 294 289 287 281 279 277 277 273 269 269 269 268 268 269 268 268 271 272 273 274 275 276 278 281 283 288 291 294 298 303 302 302 303 303 302 302 301 294 292 290 285 281 276 270 268 266 268 269 272 279 285 291 296 302 310 322 331 337 342 348 354 370 372 378 383 387 394 401 404 407 411 412 415 423 426 427 428 428 429 431 433 439 444 447 450 456 460 463 466 467 470 473 474 474 473 473 472 468 466 464 464 462 455 451 451 449 445 445 441 437 433 430 426 422 422 416 416 416 415 410 408 402 402 403 403 403 402 398 396 396 394 390 386 379 376 369 360 356 353 349 349 349 348 348 348 347 347 346 351 355 360 367 368 368 371 372 372 371 371 372 372 373 372 370 368 368 367 365 362 354 352 349 345 343 343 337 335 333 331 327 325 324 324 324 323 323 323 317 315 310 304 304 300 291 291 286 284 284 282 280 278 276 274 272 271 274 273 278 282 289 296 322 341 366 390 417 448 516 547 580 607 638 666 712 728 745 757 770 780 797 806 814 817 823 821 804 789 771 742 716
1284 1287 1382 1929 1629 1631 1729 1512 2060 2113 2172 2181 2545 2570 2587 2596 2600 2603 2608 2615 2616 2623 2625 2630 2636 2643 2651 2657 2659 2665 2667 2675 2681 2682 2687 2688 2689 2692 2697 2696 2699 2699 2699 2701 2701 2701 2700 2703 2703 2702 2702 2703 2703 2704 2706 2707 2706 2706 2706 2705 2707 2706 2706 2707 2707 2700 2696 2694 2694 2694 2692 2691 2686 2686 2684 2684 2682 2677 2666 2663 2659 2658 2657 2654 2653 2653 2649 2649 2649 2647 2643 2643 2641 2637 2629 2627 2619 2610 2602 2595 2584 2574 2556 2546 2534 2526 2514 2496 2489 2480 2471 2465 2456 2440 2433 2426 2418 2410 2404 2394 2387 2381 2375 2368 2363 2358 2351 2349 2346 2348 1579 479 480 477 476 473 468 464 463 461 461 454 450 446 441 439 439 437 435 432 431 429 430 431 432 435 434 437 438 440 440 442 443 442 442 443 444 444 443 441 441 441 437 435 429 426 424 423 421 423 423 421 420 420 422 422 422 421 421 420 420 419 417 419 415 413 412 412 410 411 409 409 408 408 406 405 403 401 399 398 398 398 396 395 391 391 390 390 388 387 387 387 385 383 382 377 376 376 372 369 368 358 356 355 355 350 347 343 339 334 332 330 330 326 325 325 323 322 322 321 321 319 318 318 318 315 313 311 311 309 309 303 303 299 295 293 288 286 280 277 275 274 271 267 266 266 266 265 266 266 265 268 269 271 271 273 274 277 280 282 288 291 294 298 304 303 302 304 303 303 303 302 295 291 289 284 280 277 271 269 269 270 270 272 280 286 290 295 301 309 319 329 335 339 345 352 365 368 374 381 385 391 400 403 406 410 413 418 425 428 429 431 430 431 432 435 441 444 447 450 456 461 464 467 468 472 474 475 473 472 472 470 469 467 464 463 461 454 450 450 448 444 444 437 436 431 429 425 422 418 416 415 415 415 409 405 402 401 403 402 402 399 397 395 395 393 389 382 378 376 371 364 361 353 351 349 349 348 352 352 351 351 350 352 356 364 367 368 367 370 372 371 370 370 371 371 372 371 369 369 369 368 366 361 359 358 355 351 347 346 343 341 339 337 333 331 330 330 328 326 326 320 319 317 312 307 306 299 294 293 290 286 282 280 280 282 280 279 277 277 280 279 284 290 302 313 331 352 376 402 457 492 521 552 584 612 667 689 710 727 743 754 776 786 793 803 811 817 823 821 814 804 787 764 713
1155 1199 1256 1326 1456 1403 1445 1512 1987 2113 2172 2176 2538 2563 2577 2591 2592 2595 2599 2599 2602 2612 2617 2620 2626 2630 2637 2650 2652 2658 2661 2660 2668 2675 2677 2680 2681 2682 2685 2686 2689 2690 2690 2690 2691 2691 2692 2693 2693 2693 2694 2693 2695 2696 2699 2699 2700 2699 2699 2699 2700 2700 2699 2700 2700 2700 2698 2696 2687 2687 2685 2685 2681 2676 2671 2669 2667 2662 2658 2650 2646 2644 2644 2640 2640 2640 2638 2637 2637 2637 2635 2634 2632 2631 2622 2620 2618 2603 2597 2590 2583 2573 2565 2547 2535 2527 2515 2506 2491 2481 2474 2467 2459 2450 2437 2429 2422 2414 2407 2402 2388 2382 2375 2368 2363 2361 2352 2348 2346 2348 1222 1221 492 487 487 481 476 473 469 467 465 456 451 451 442 440 440 436 434 432 430 429 429 430 431 434 433 436 437 439 440 442 444 443 443 444 444 444 444 444 443 443 441 437 432 428 426 426 424 423 423 421 420 427 427 428 429 428 428 428 425 423 421 422 419 417 416 416 414 413 411 411 410 410 408 406 405 403 401 401 400 400 398 398 394 393 393 392 390 390 389 389 387 385 383 381 375 373 370 366 366 357 355 354 354 349 347 343 339 334 333 331 330 326 326 325 323 323 323 322 322 320 319 319 318 316 314 312 312 310 308 304 303 298 294 292 287 285 279 276 274 273 270 266 265 263 263 263 262 261 261 264 265 266 267 268 271 273 279 280 287 290 293 297 304 303 302 304 304 304 303 303 296 292 288 283 279 277 275 273 273 274 274 276 282 288 293 297 305 313 323 331 334 338 346 351 365 369 375 381 386 397 401 404 407 413 416 423 428 431 432 433 433 434 435 436 442 445 446 454 457 461 464 467 471 477 478 479 477 477 476 472 472 470 465 464 461 455 451 451 447 444 442 434 434 430 428 425 421 417 415 415 414 414 407 405 401 401 402 401 401 399 397 395 394 392 388 385 379 379 375 372 361 357 355 353 353 353 352 352 351 351 355 356 362 363 367 369 368 371 372 372 371 371 372 372 373 372 372 372 371 372 368 368 366 366 362 358 354 354 350 348 346 344 339 338 336 336 334 330 329 324 324 322 316 311 307 303 298 298 294 288 286 284 284 282 280 277 277 284 287 288 291 302 310 321 339 360 384 436 465 498 527 558 589 644 670 692 712 726 742 765 776 785 793 803 811 825 828 829 822 820 803 766 744
1111 1119 1122 1129 1134 1323 1327 1338 1925 2052 2108 2176 2538 2563 2577 2576 2584 2588 2591 2592 2592 2598 2606 2613 2617 2624 2630 2637 2645 2651 2654 2653 2661 2667 2670 2673 2674 2675 2677 2678 2682 2684 2683 2683 2684 2684 2685 2686 2686 2686 2687 2686 2688 2689 2692 2692 2693 2692 2692 2692 2693 2693 2693 2694 2693 2693 2691 2689 2687 2687 2685 2685 2674 2671 2667 2657 2654 2649 2647 2642 2635 2631 2631 2629 2629 2628 2628 2627 2629 2628 2628 2628 2626 2624 2615 2613 2613 2608 2595 2588 2581 2573 2566 2556 2536 2528 2517 2507 2498 2492 2475 2468 2460 2453 2445 2431 2425 2418 2411 2408 2399 2386 2379 2372 2367 2365 2359 2348 2346 2347 1590 1590 500 501 495 489 483 480 478 471 469 460 455 455 443 439 439 437 435 434 430 430 430 429 430 432 432 435 437 438 439 440 443 444 445 446 446 449 448 448 447 447 445 441 437 434 432 431 431 429 428 426 426 427 427 428 436 436 435 435 433 430 428 430 426 424 424 423 421 421 419 418 418 417 415 413 413 411 407 406 406 404 402 403 399 399 398 398 396 396 395 393 391 389 385 383 376 374 370 367 366 363 356 355 355 350 348 347 342 335 333 331 330 330 330 328 326 325 325 324 324 322 322 321 321 318 316 314 314 310 308 303 302 297 293 291 286 284 279 275 273 272 269 265 264 262 262 262 259 259 258 261 263 264 266 268 270 272 276 279 286 289 292 297 301 304 303 304 304 304 303 305 298 294 291 289 287 283 281 280 280 281 281 284 288 294 298 303 309 323 327 334 336 341 349 358 365 370 376 382 387 397 402 406 409 415 418 426 430 433 434 436 435 438 437 439 445 448 449 456 459 462 467 470 471 477 478 479 481 481 479 477 476 473 467 467 458 458 452 450 450 446 441 437 437 431 429 426 420 418 416 416 415 413 408 406 404 403 404 404 403 401 399 399 399 397 393 389 385 383 381 374 367 363 360 358 357 356 356 356 355 355 355 359 362 367 368 370 371 377 376 376 376 375 376 377 379 378 378 378 377 376 374 374 370 372 368 359 359 358 355 353 351 345 343 342 339 338 333 332 332 328 328 326 315 315 311 308 302 302 295 294 292 290 290 288 285 283 285 284 287 288 303 310 317 329 346 367 418 442 471 504 533 564 619 647 671 694 712 726 753 764 774 783 791 803 818 828 831 834 830 819 808 794 777
1051 1077 1085 1094 1100 1109 1302 1320 1306 1819 1873 2161 2170 2556 2575 2576 2584 2585 2582 2580 2582 2588 2594 2598 2609 2613 2621 2629 2635 2638 2647 2647 2653 2656 2657 2660 2664 2667 2667 2666 2668 2674 2673 2675 2677 2677 2677 2680 2679 2679 2679 2678 2680 2682 2685 2685 2686 2686 2686 2685 2686 2686 2686 2686 2687 2686 2684 2682 2681 2680 2678 2678 2674 2671 2667 2652 2642 2637 2635 2630 2626 2623 2621 2620 2620 2620 2619 2621 2622 2622 2621 2621 2621 2617 2609 2607 2606 2601 2594 2583 2576 2568 2561 2551 2543 2528 2516 2506 2498 2491 2481 2468 2459 2453 2444 2439 2427 2419 2414 2409 2400 2395 2382 2375 2371 2368 2361 2354 2349 2347 1590 1590 500 513 504 497 492 489 485 478 474 467 461 460 455 446 446 442 440 440 436 435 433 431 433 432 434 436 437 438 440 441 442 445 446 449 448 451 452 452 453 451 449 447 445 441 439 439 438 436 435 433 433 434 434 435 436 436 435 435 438 438 436 437 433 431 431 430 428 428 426 425 425 424 422 420 420 418 416 412 413 411 409 409 408 404 404 404 402 401 400 397 395 393 389 387 380 378 374 371 369 364 356 356 354 349 348 348 342 337 335 335 334 332 330 328 326 326 326 325 325 323 322 320 320 317 315 313 313 311 307 302 301 296 293 291 285 283 278 274 272 272 268 266 265 263 263 262 260 258 258 260 262 263 265 267 270 271 275 276 285 288 291 296 300 303 306 307 306 306 306 305 298 294 292 291 291 285 285 286 286 287 288 292 295 301 306 310 316 325 330 336 339 343 351 360 368 373 379 385 389 398 404 409 412 418 421 428 433 436 437 438 441 440 440 441 447 450 456 459 462 466 471 472 478 481 482 483 481 481 479 476 476 472 467 466 457 457 452 450 449 446 440 436 436 431 429 420 419 417 415 415 415 409 407 405 403 403 404 403 403 401 399 398 398 394 393 391 389 389 385 378 371 369 366 363 361 361 360 360 360 359 360 363 364 367 368 370 373 376 376 375 375 375 375 377 378 378 377 377 376 376 374 373 371 373 364 360 360 358 354 354 349 347 345 343 341 339 335 335 335 331 331 325 320 316 312 310 305 301 299 300 298 296 294 293 293 292 294 293 295 297 303 310 317 333 351 396 422 446 476 508 567 594 622 648 671 692 722 739 750 761 770 780 799 807 818 828 831 837 838 836 826 817 807
1017 1032 1038 1055 1059 1067 1056 1057 1112 1107 1871 2158 2167 2524 2568 2569 2580 2576 2579 2582 2582 2588 2582 2587 2594 2600 2614 2622 2628 2631 2637 2640 2646 2649 2650 2651 2654 2659 2658 2660 2659 2662 2665 2666 2667 2667 2670 2670 2672 2672 2672 2672 2673 2674 2678 2678 2679 2679 2679 2679 2680 2679 2679 2679 2680 2680 2678 2676 2674 2673 2673 2671 2667 2662 2659 2652 2647 2637 2635 2618 2616 2614 2612 2612 2612 2611 2611 2614 2614 2615 2614 2614 2614 2612 2602 2600 2599 2594 2588 2581 2569 2562 2556 2547 2539 2532 2514 2506 2497 2490 2481 2474 2459 2452 2444 2440 2433 2420 2415 2410 2401 2396 2389 2376 2372 2372 2364 2359 2357 2346 1247 1247 509 513 504 497 501 496 491 487 477 470 465 461 456 449 445 441 439 439 437 437 434 434 435 435 436 438 440 441 442 443 445 447 448 451 451 454 455 454 455 453 453 451 451 447 443 443 442 440 439 437 437 438 438 439 442 441 441 439 438 438 436 439 436 434 433 433 431 430 428 428 427 425 423 421 421 419 417 414 416 414 412 411 411 407 406 406 404 404 403 399 397 394 390 386 384 377 374 370 368 364 357 357 355 349 349 349 345 339 337 337 337 335 331 329 327 326 326 325 327 325 325 323 322 320 318 316 315 310 307 301 301 295 292 290 284 282 277 273 271 271 267 265 264 262 262 261 259 257 257 260 261 262 265 266 269 270 273 276 283 286 290 295 299 302 306 308 307 307 306 304 299 295 292 291 291 292 292 293 295 294 295 300 304 309 313 318 324 333 336 340 343 348 354 363 371 375 381 387 395 401 407 412 414 421 428 429 432 435 436 438 440 440 439 442 447 450 454 457 460 466 470 472 477 480 482 483 481 480 478 476 476 472 469 465 460 458 454 452 450 445 439 436 435 430 430 421 420 418 415 414 414 408 408 406 402 402 403 402 402 400 398 398 395 393 393 391 389 388 381 377 372 370 366 364 362 362 360 359 359 359 359 362 364 366 368 370 373 376 376 378 378 379 378 379 381 380 380 381 379 378 378 378 374 370 368 364 364 362 358 356 354 352 350 346 344 342 338 338 337 334 333 329 324 320 315 313 309 305 301 303 301 299 296 297 297 297 298 298 297 300 306 312 320 351 372 396 422 449 480 539 570 596 623 649 672 708 721 737 748 757 769 786 797 805 816 828 832 845 846 844 842 837 833
987 998 1006 1012 1022 1027 1025 1026 1029 1025 1863 2151 2160 2517 2542 2561 2573 2571 2571 2572 2570 2576 2582 2587 2594 2594 2600 2615 2621 2624 2630 2633 2633 2642 2643 2645 2648 2650 2651 2653 2652 2655 2658 2658 2661 2660 2663 2663 2664 2664 2665 2665 2666 2667 2669 2672 2673 2672 2672 2672 2671 2672 2672 2672 2673 2673 2673 2669 2667 2667 2666 2664 2664 2656 2650 2644 2639 2632 2623 2618 2616 2614 2604 2604 2603 2603 2604 2607 2607 2608 2608 2607 2607 2605 2603 2595 2594 2591 2586 2579 2574 2560 2554 2545 2537 2530 2522 2505 2497 2490 2480 2473 2466 2453 2445 2441 2434 2429 2416 2411 2402 2397 2390 2385 2375 2375 2379 2382 2382 2382 1249 1248 890 522 518 506 501 496 491 493 489 477 472 467 461 455 448 440 438 438 438 437 435 435 436 435 437 436 440 442 444 446 447 448 451 453 453 456 457 457 458 457 459 458 458 454 450 450 448 447 447 445 444 444 444 443 444 444 443 443 442 442 440 439 436 434 439 439 435 434 432 432 432 431 427 425 423 421 419 420 418 418 414 415 413 409 409 408 406 406 406 402 400 396 392 389 387 378 376 372 370 367 361 357 357 352 351 351 349 343 341 341 341 339 333 333 329 329 328 328 327 325 325 325 325 322 320 320 319 314 311 305 301 299 294 292 287 283 279 275 272 270 266 264 263 261 261 261 258 256 256 259 260 261 264 265 268 269 272 275 282 285 290 294 299 301 309 310 310 309 309 308 304 301 299 298 296 292 292 293 305 305 306 308 313 318 322 325 331 339 343 348 350 355 364 369 373 376 384 390 397 403 410 414 417 423 431 432 435 438 439 440 443 444 444 447 449 454 455 459 462 467 471 479 482 483 486 487 485 483 481 480 478 475 469 465 460 462 459 457 449 446 440 438 436 431 425 423 423 421 417 415 413 411 411 407 405 405 405 405 405 403 401 400 398 396 394 392 391 386 384 380 376 374 371 368 368 368 366 365 365 364 364 367 366 367 372 373 376 377 377 378 377 379 386 387 388 388 386 387 385 384 382 382 380 376 372 370 370 368 364 360 358 356 354 348 346 344 342 340 340 337 337 332 328 324 319 313 313 309 306 307 305 303 302 303 303 303 304 303 303 304 310 317 337 353 374 399 425 449 511 539 571 597 623 647 690 708 720 737 748 757 778 786 797 805 816 832 838 846 852 852 853 851 851
963 969 975 981 987 991 995 997 1001 999 1004 1855 2153 2510 2535 2554 2555 2563 2562 2562 2560 2561 2568 2580 2587 2594 2600 2607 2615 2617 2623 2626 2626 2632 2636 2638 2639 2642 2643 2643 2644 2647 2648 2650 2649 2652 2653 2656 2657 2657 2658 2658 2659 2661 2662 2665 2664 2666 2665 2665 2665 2666 2666 2665 2666 2666 2666 2664 2660 2660 2660 2658 2657 2654 2644 2637 2630 2623 2618 2615 2608 2606 2604 2604 2603 2596 2597 2600 2600 2601 2601 2600 2600 2598 2596 2591 2591 2587 2584 2577 2570 2563 2550 2543 2535 2528 2520 2510 2495 2488 2478 2473 2468 2459 2446 2442 2435 2430 2422 2412 2403 2398 2391 2386 2379 2377 2382 2383 2383 2383 1987 1248 893 528 524 519 507 503 498 493 489 484 479 474 469 462 455 455 446 444 443 443 443 440 441 439 441 440 442 444 447 448 449 452 453 458 457 460 461 461 462 461 463 462 462 463 457 457 455 455 454 454 452 451 451 450 452 451 451 450 450 448 447 445 441 439 439 439 438 442 440 439 439 438 434 432 429 427 426 428 425 425 421 421 419 417 416 416 412 412 410 406 404 399 397 393 391 382 380 376 374 372 367 363 363 357 357 355 353 349 345 345 345 343 337 337 333 333 332 332 331 329 327 325 325 323 324 324 324 317 313 307 304 302 298 294 289 285 281 278 274 271 267 264 264 262 262 261 259 257 257 258 259 260 263 264 267 268 269 274 281 284 289 293 298 302 310 311 312 312 311 311 309 307 305 304 302 301 301 304 305 305 306 319 320 327 329 332 341 346 349 353 356 361 370 373 377 382 390 394 402 406 412 418 421 427 435 436 439 442 443 446 447 447 446 449 452 456 457 464 467 471 476 483 486 487 490 490 489 487 485 485 483 479 472 470 464 462 459 457 450 447 441 439 437 432 428 426 426 424 420 416 416 415 415 411 409 410 406 406 406 404 403 403 399 397 395 393 392 388 386 383 379 377 375 373 372 372 370 369 369 368 370 373 372 373 379 381 383 385 384 385 385 384 386 387 388 387 387 388 386 385 383 379 379 379 373 371 371 365 365 361 359 357 351 348 346 344 342 341 339 339 337 334 329 327 320 316 316 314 310 311 312 310 310 311 311 312 311 311 310 312 315 329 342 356 375 400 426 481 512 540 571 597 647 668 688 706 719 733 752 763 775 782 795 803 826 832 838 846 852 859 863 861 862
937 945 950 956 959 964 968 969 973 976 982 1848 2136 2503 2528 2547 2548 2559 2556 2553 2550 2551 2557 2565 2577 2585 2591 2599 2607 2614 2623 2626 2619 2625 2628 2630 2632 2634 2636 2636 2636 2638 2640 2641 2641 2642 2642 2646 2649 2649 2652 2651 2651 2654 2655 2658 2658 2659 2658 2658 2658 2659 2659 2659 2660 2659 2659 2657 2655 2653 2653 2651 2651 2647 2642 2630 2623 2617 2611 2606 2601 2599 2597 2597 2597 2596 2597 2600 2600 2594 2594 2594 2593 2591 2589 2584 2584 2584 2578 2573 2568 2561 2555 2541 2534 2528 2519 2509 2502 2487 2479 2472 2465 2459 2447 2443 2437 2431 2423 2418 2404 2399 2392 2387 2381 2379 2378 2379 2379 2379 1653 1264 901 533 530 525 519 510 505 500 495 490 483 474 469 461 456 454 447 443 443 442 442 441 442 440 441 441 442 444 448 452 453 456 458 462 461 464 465 465 465 465 467 466 466 467 465 461 459 460 460 460 457 457 457 456 457 459 456 458 457 455 455 453 449 447 446 446 446 442 440 439 441 438 436 432 428 426 426 427 426 427 424 423 423 421 419 418 416 416 414 414 406 401 399 395 393 384 382 379 377 375 371 367 367 363 363 362 360 356 353 352 350 348 343 342 339 338 338 337 335 335 333 331 329 325 324 324 324 316 314 308 304 302 299 295 290 286 282 279 275 271 266 264 263 261 261 260 258 256 256 257 258 259 262 263 266 267 269 273 279 283 288 292 297 306 309 310 311 311 311 313 311 311 312 312 310 310 310 313 314 315 318 319 320 327 335 338 347 352 355 359 362 367 374 377 381 386 394 400 404 409 415 421 424 433 436 437 440 443 444 447 448 448 449 450 455 457 460 465 471 475 483 484 487 487 490 489 488 486 484 484 482 478 471 471 467 463 461 452 450 447 441 442 439 433 429 426 425 423 419 415 415 415 414 411 408 410 406 405 405 403 402 402 398 396 394 392 391 388 386 382 378 374 374 374 373 373 371 370 370 369 371 374 375 379 380 383 386 387 387 386 386 386 387 388 389 387 387 388 390 390 386 382 382 380 374 372 370 365 364 361 359 355 351 347 345 343 341 339 337 336 336 334 329 321 319 317 318 316 314 314 315 313 314 315 315 314 314 314 313 314 324 331 343 357 377 399 450 481 514 541 569 619 644 668 688 702 717 741 750 762 773 782 795 814 826 832 838 846 859 862 866 867 867
922 927 929 929 936 939 944 945 946 955 963 1840 2129 2138 2496 2540 2541 2552 2546 2545 2537 2541 2547 2555 2561 2569 2583 2590 2598 2606 2610 2617 2619 2625 2628 2623 2624 2625 2630 2629 2629 2629 2628 2629 2629 2632 2633 2633 2642 2642 2643 2645 2644 2646 2648 2651 2651 2652 2652 2651 2651 2652 2652 2652 2651 2653 2652 2650 2648 2647 2646 2644 2644 2640 2635 2630 2617 2610 2605 2600 2594 2592 2590 2590 2590 2589 2589 2593 2593 2594 2594 2594 2588 2586 2584 2579 2579 2578 2577 2566 2561 2554 2548 2542 2529 2522 2514 2505 2497 2490 2475 2468 2462 2455 2450 2439 2433 2429 2422 2417 2412 2400 2393 2388 2380 2376 2376 2374 2374 2373 1647 1263 905 536 532 529 523 520 509 504 497 492 485 475 468 461 456 454 454 445 445 445 444 444 443 443 444 444 445 446 452 456 457 460 462 463 465 468 469 469 469 470 471 470 470 470 466 462 460 461 461 461 460 459 459 459 460 461 459 460 461 459 459 457 453 451 450 450 448 444 442 442 441 438 436 436 435 432 431 433 432 432 430 429 429 427 424 422 422 422 418 416 409 403 403 399 397 394 387 383 381 379 375 373 372 367 367 366 364 359 355 355 351 349 345 343 339 339 339 338 336 336 334 332 330 324 323 323 323 316 314 308 309 305 303 299 294 288 286 283 277 275 270 266 266 264 263 263 260 258 258 258 257 259 261 262 265 266 268 272 278 284 289 293 296 305 308 311 312 312 311 316 314 313 314 316 315 318 317 320 322 323 325 327 328 332 335 338 347 359 361 365 368 372 378 381 386 390 396 401 405 411 418 422 427 432 437 438 441 444 447 448 449 450 450 451 457 458 463 467 474 478 486 487 490 489 491 490 488 486 486 485 483 476 474 473 470 466 464 454 452 448 444 442 433 433 432 428 426 424 422 418 418 417 417 413 409 411 409 408 408 405 405 405 401 397 395 393 393 389 387 383 380 377 377 376 376 376 373 373 374 374 375 378 382 385 386 388 392 392 391 391 390 390 391 394 393 391 391 391 390 388 386 385 383 379 374 371 369 364 364 360 356 354 350 347 346 343 340 338 336 336 334 332 326 322 322 320 321 319 320 320 319 319 320 321 321 320 320 320 319 322 325 331 340 355 397 422 448 477 510 536 591 618 642 666 686 702 731 741 750 761 773 795 803 814 826 832 838 852 859 862 866 869 865
907 912 914 914 915 918 921 923 925 929 934 1833 2121 2131 2489 2514 2534 2545 2535 2535 2525 2523 2539 2546 2553 2560 2568 2582 2590 2597 2602 2608 2611 2618 2621 2623 2624 2624 2618 2622 2622 2622 2622 2621 2622 2625 2627 2626 2629 2635 2636 2638 2637 2639 2640 2644 2644 2645 2645 2645 2645 2646 2645 2645 2645 2646 2645 2644 2642 2640 2639 2639 2637 2633 2628 2623 2616 2603 2598 2593 2588 2586 2585 2583 2583 2583 2582 2584 2587 2588 2587 2589 2588 2588 2579 2574 2574 2573 2571 2568 2556 2549 2542 2536 2529 2517 2509 2500 2492 2483 2478 2466 2458 2453 2446 2441 2427 2424 2419 2414 2408 2403 2390 2385 2378 2373 2369 2364 2354 2353 922 910 913 538 538 534 531 527 520 508 501 498 491 486 475 468 463 461 454 449 445 449 448 448 446 445 446 446 449 450 453 460 462 464 466 467 470 472 474 473 473 474 475 475 474 474 470 470 464 465 465 465 464 464 463 463 464 465 465 466 465 463 463 461 457 455 455 453 451 447 445 444 444 442 440 438 435 432 439 440 440 439 435 433 433 431 431 428 426 424 421 417 411 408 407 404 400 396 391 387 387 385 383 381 380 375 374 374 372 366 363 362 359 355 351 347 344 343 343 341 338 338 336 334 332 328 326 324 324 318 316 316 309 305 303 307 300 294 294 290 285 278 274 269 268 266 264 264 261 259 259 259 258 258 260 262 264 266 267 271 277 283 288 292 297 308 309 312 313 313 314 320 318 317 319 321 324 324 325 328 329 330 333 334 337 341 343 346 353 359 361 365 372 381 384 387 392 396 402 405 409 416 422 425 432 435 440 441 444 447 449 451 452 453 453 452 458 461 466 470 476 484 485 488 489 491 492 491 489 489 487 486 484 479 477 476 473 469 462 456 454 449 445 443 436 436 432 428 426 423 423 421 421 420 420 414 412 413 411 411 411 408 408 407 404 400 396 396 394 392 390 386 382 380 379 379 379 378 376 377 377 378 379 384 387 388 389 394 398 397 397 397 396 396 399 400 398 397 397 397 393 392 389 385 383 379 373 371 369 364 363 357 355 353 350 346 346 342 340 338 337 337 335 329 327 323 325 323 325 323 326 324 324 325 326 325 325 325 324 324 323 326 329 334 343 374 395 420 444 473 506 563 589 616 640 665 700 715 731 741 750 761 782 795 803 814 826 832 846 852 857 862 866 860 858
893 897 899 899 900 900 901 904 905 909 914 936 2114 2123 2482 2507 2526 2527 2499 2502 2512 2508 2518 2538 2544 2552 2560 2566 2573 2589 2595 2601 2604 2605 2615 2616 2617 2617 2618 2623 2622 2613 2613 2613 2613 2615 2617 2618 2621 2624 2623 2631 2631 2632 2633 2635 2638 2639 2638 2638 2638 2637 2638 2638 2638 2639 2639 2639 2635 2633 2633 2632 2632 2628 2621 2616 2610 2603 2596 2586 2581 2579 2578 2577 2576 2576 2575 2577 2580 2579 2582 2582 2581 2581 2579 2574 2574 2568 2566 2564 2557 2547 2540 2534 2527 2520 2505 2496 2488 2481 2475 2468 2457 2449 2442 2436 2429 2417 2413 2407 2401 2398 2391 2379 2372 2367 2364 2357 2345 2341 1630 1279 914 546 544 540 537 533 526 521 509 505 497 490 484 472 469 467 460 453 451 449 448 448 452 451 450 450 451 454 457 460 466 469 470 471 474 476 478 477 477 478 478 477 477 476 473 472 467 468 468 467 467 466 464 465 467 468 466 468 468 468 469 467 466 462 462 460 458 454 454 452 451 449 447 445 443 439 439 440 440 439 438 436 435 433 433 429 427 425 421 419 417 410 410 406 404 402 396 393 392 390 388 386 387 382 382 381 379 374 370 370 366 362 359 351 348 347 347 343 341 341 340 338 338 336 333 331 331 326 324 323 318 314 312 307 300 294 295 291 286 279 275 269 267 265 263 263 260 258 258 258 257 257 259 261 264 265 266 271 276 283 289 293 298 305 308 313 316 315 316 321 320 322 323 326 330 331 332 335 335 338 340 342 344 349 350 356 359 363 365 369 372 381 384 391 394 399 403 406 410 417 421 424 432 435 439 440 443 446 449 450 451 453 452 456 459 462 465 470 474 482 483 486 487 488 489 491 489 488 486 486 482 480 476 476 475 470 464 459 455 450 445 439 437 437 435 429 427 423 423 420 420 420 417 415 413 413 411 410 408 408 407 407 403 400 395 395 393 391 389 382 381 379 379 379 378 376 375 377 376 378 383 383 388 389 390 395 399 399 398 399 399 399 401 403 399 399 398 396 392 392 388 384 382 373 373 371 368 363 359 357 355 351 348 346 341 339 339 337 335 335 332 329 326 323 324 325 326 324 326 323 323 326 327 328 328 327 327 325 324 326 329 333 351 370 391 416 440 470 530 560 588 614 638 682 700 715 729 740 750 771 781 795 803 814 832 838 844 849 854 858 861 854 849
884 884 883 884 885 885 886 886 888 893 897 926 1817 2107 2475 2500 2406 2411 2433 2463 2477 2490 2503 2515 2526 2545 2553 2559 2567 2574 2588 2594 2597 2599 2605 2608 2610 2610 2610 2613 2614 2613 2613 2601 2601 2602 2604 2605 2609 2612 2613 2616 2621 2625 2626 2628 2631 2630 2631 2631 2631 2631 2632 2631 2631 2632 2632 2632 2630 2626 2626 2625 2625 2625 2615 2610 2603 2596 2589 2584 2574 2572 2572 2570 2569 2569 2569 2570 2573 2573 2574 2575 2575 2574 2572 2572 2568 2568 2566 2564 2551 2545 2533 2527 2522 2515 2508 2491 2483 2476 2468 2461 2456 2442 2435 2429 2422 2413 2406 2400 2394 2391 2384 2376 2367 2360 2357 2350 2345 2333 1625 1274 551 549 548 549 544 539 532 522 508 504 496 489 485 480 470 468 461 460 458 454 454 454 452 451 449 451 452 457 458 461 468 470 474 474 477 476 479 478 478 479 479 478 478 477 474 473 471 469 468 468 466 466 465 466 467 469 467 468 469 468 470 468 467 462 461 459 457 454 453 451 451 449 447 445 443 442 440 441 441 439 438 436 436 434 434 432 426 424 421 419 417 409 409 405 403 401 399 394 393 393 391 389 391 386 386 385 382 381 374 372 368 365 361 354 350 350 349 346 344 341 341 341 339 337 334 332 332 327 325 324 318 315 313 308 301 297 295 291 290 283 281 273 271 271 266 264 260 258 257 257 257 256 259 258 261 262 264 271 272 279 286 291 295 303 306 310 313 314 316 320 321 322 325 328 332 334 335 338 337 340 345 347 350 353 354 360 363 368 369 374 376 386 388 391 394 400 406 409 413 418 422 425 433 436 437 441 443 447 448 449 451 452 452 456 460 462 465 467 477 480 481 484 485 486 487 488 486 486 484 484 480 478 474 474 473 467 464 459 455 450 444 439 435 434 432 427 425 423 422 420 420 420 418 416 416 414 412 411 409 409 407 406 403 399 395 395 393 391 385 381 381 380 380 380 379 377 377 379 379 384 388 389 390 393 395 400 400 400 399 401 400 401 402 402 400 398 397 395 392 391 388 384 378 373 372 370 368 363 359 356 353 351 347 341 341 339 339 336 334 334 332 328 326 324 323 326 326 324 325 323 327 328 330 329 332 332 331 329 327 327 328 341 348 365 386 410 464 497 525 554 584 607 656 677 697 711 726 748 760 771 780 795 803 825 832 838 844 849 852 856 854 847 839
874 873 873 873 872 870 871 871 874 873 881 917 1810 2099 2109 2493 2399 2402 2421 2436 2450 2475 2488 2500 2513 2524 2544 2552 2560 2566 2574 2581 2590 2592 2596 2598 2599 2600 2600 2601 2602 2602 2602 2601 2601 2602 2595 2595 2602 2605 2605 2609 2614 2614 2620 2621 2624 2624 2625 2624 2624 2624 2625 2625 2625 2626 2625 2625 2623 2623 2621 2620 2620 2620 2615 2604 2598 2589 2582 2577 2572 2565 2565 2563 2563 2562 2562 2563 2566 2566 2567 2568 2568 2567 2566 2565 2562 2561 2559 2557 2551 2545 2540 2521 2515 2509 2503 2494 2477 2471 2466 2459 2454 2445 2430 2425 2418 2410 2404 2393 2387 2384 2377 2369 2365 2353 2350 2343 2338 2329 2267 2172 1516 902 551 555 555 546 539 528 521 505 497 490 488 481 474 469 462 461 458 456 453 453 451 451 450 451 452 459 461 463 466 470 475 476 477 477 478 479 479 480 480 481 479 478 476 476 474 470 469 467 467 467 466 467 468 470 468 469 470 471 471 469 468 466 466 464 462 458 458 453 453 451 449 449 447 446 444 442 442 443 439 437 436 434 437 435 427 425 422 420 418 412 412 408 406 406 404 400 399 399 398 396 399 394 393 393 389 387 382 378 374 371 367 360 356 354 354 350 348 346 345 345 343 341 340 336 336 332 330 330 324 322 320 315 308 302 299 295 290 283 281 281 279 278 273 270 265 260 258 258 257 257 258 258 260 262 263 270 270 276 284 289 293 302 305 310 314 315 320 321 322 323 326 329 333 336 338 340 342 348 350 353 355 357 359 363 366 370 372 376 384 387 390 392 395 400 406 409 414 419 423 429 432 433 435 439 441 445 446 447 449 450 452 455 457 458 461 465 474 477 479 482 483 486 487 488 488 487 485 484 481 479 475 475 473 467 463 460 456 451 443 440 436 434 432 427 424 422 422 420 419 419 418 416 415 417 415 412 410 410 408 407 402 400 396 396 395 392 389 386 385 385 384 384 383 381 381 384 383 391 392 394 395 398 400 402 401 401 401 402 401 402 404 403 401 399 397 395 391 391 387 380 378 372 372 370 363 362 358 356 353 352 344 342 342 340 340 336 335 335 333 329 327 325 324 327 327 328 329 327 330 333 334 334 335 334 334 332 330 330 334 340 348 364 384 433 459 490 518 548 577 626 651 672 693 708 735 747 758 767 780 795 814 825 832 838 844 852 852 851 846 839 825
864 865 865 863 861 859 858 858 859 858 866 867 1802 2092 2101 2461 2486 2337 2406 2422 2436 2444 2474 2487 2499 2514 2526 2537 2553 2559 2567 2575 2581 2585 2589 2591 2592 2593 2593 2593 2594 2594 2593 2593 2592 2594 2595 2595 2584 2589 2593 2598 2604 2605 2608 2614 2619 2618 2620 2619 2619 2619 2620 2620 2619 2619 2620 2620 2618 2618 2616 2615 2615 2615 2609 2603 2597 2582 2576 2570 2565 2560 2558 2556 2556 2555 2555 2555 2559 2559 2560 2563 2564 2564 2562 2562 2558 2558 2556 2550 2544 2540 2535 2528 2515 2504 2499 2491 2482 2469 2462 2453 2448 2441 2433 2421 2413 2406 2401 2394 2380 2377 2370 2362 2358 2353 2342 2336 2331 2322 2315 1850 1848 1435 866 563 565 554 545 532 523 515 498 492 492 485 478 473 467 465 462 461 459 457 455 455 454 454 455 459 461 463 466 468 474 476 477 476 478 479 480 481 481 482 480 479 477 477 476 474 474 472 471 469 469 469 471 471 469 470 471 470 472 471 471 469 467 466 466 464 462 461 457 457 455 455 453 450 448 446 446 445 443 439 439 437 437 435 428 428 424 422 420 417 414 412 410 410 409 407 407 406 406 404 405 401 401 400 397 395 389 385 382 378 374 371 364 361 359 356 355 353 353 351 349 347 346 342 342 338 336 336 330 328 326 321 315 310 306 302 297 290 288 281 279 284 279 275 271 264 262 260 258 258 259 258 260 259 261 268 268 274 282 288 292 301 304 309 313 315 321 322 323 326 329 332 336 339 340 343 346 352 356 358 361 363 365 369 372 376 378 381 388 391 394 398 400 404 408 411 414 419 421 427 430 431 432 437 438 443 444 445 448 449 450 453 454 456 459 463 472 475 478 481 482 487 486 487 487 487 485 486 482 480 475 473 467 467 463 459 456 452 445 441 437 435 433 426 424 422 421 419 419 418 418 416 415 417 414 412 410 409 407 403 401 399 396 395 395 391 390 387 386 386 385 387 386 386 385 388 393 394 397 398 398 400 402 403 402 402 402 403 402 402 403 403 399 398 396 394 391 389 383 379 377 372 371 367 362 362 358 356 354 348 344 344 343 341 339 337 336 336 334 330 325 324 324 327 326 329 329 328 331 334 337 340 339 339 338 336 334 332 337 343 349 362 405 429 454 485 513 572 595 619 644 665 688 719 735 746 758 767 780 803 814 825 832 838 849 852 852 851 838 831 800
859 858 856 854 852 847 845 845 845 847 856 857 900 2085 2094 2454 2436 2322 2380 2396 2412 2427 2445 2461 2486 2500 2513 2525 2535 2550 2557 2564 2571 2577 2578 2581 2582 2583 2583 2583 2584 2584 2583 2583 2583 2582 2585 2585 2584 2589 2592 2586 2591 2594 2597 2603 2612 2615 2616 2616 2616 2615 2616 2616 2616 2615 2617 2616 2614 2614 2614 2613 2611 2609 2603 2596 2594 2585 2570 2565 2560 2555 2553 2551 2550 2550 2550 2550 2553 2554 2555 2558 2558 2557 2555 2555 2551 2551 2551 2545 2538 2535 2530 2523 2516 2504 2499 2491 2475 2468 2457 2448 2441 2435 2426 2419 2406 2399 2394 2387 2378 2370 2363 2355 2351 2346 2335 2329 2322 2313 2305 2298 1842 1716 1017 702 669 563 549 534 524 514 507 493 493 489 483 481 472 471 468 467 465 463 459 459 458 458 456 462 461 464 466 468 474 475 476 477 479 480 481 482 482 483 481 480 478 478 477 475 473 471 471 469 468 468 470 470 468 469 470 471 471 471 472 473 471 469 468 466 466 466 462 461 458 457 457 455 452 450 448 448 446 442 442 440 438 436 434 428 424 423 420 416 415 413 411 411 410 408 409 409 409 408 409 405 405 403 399 397 388 385 381 377 374 372 364 362 360 357 356 354 354 352 350 348 347 343 343 341 340 340 336 334 330 325 321 316 310 307 303 298 296 288 286 284 279 276 271 264 262 260 258 257 258 258 257 257 258 266 265 271 279 285 290 299 302 307 311 312 320 321 324 327 330 333 337 340 341 344 347 353 359 360 363 368 369 372 374 376 379 382 389 392 395 398 399 403 406 409 412 418 421 427 426 427 429 433 437 439 440 441 444 445 446 449 451 452 455 464 467 470 474 477 479 483 484 485 485 485 482 482 478 476 471 469 463 463 457 457 455 446 442 439 435 435 427 425 423 421 421 419 418 418 417 415 415 414 414 412 410 409 407 403 401 399 395 395 392 390 390 386 386 387 386 386 386 385 385 387 392 393 396 398 397 400 401 401 400 400 401 400 400 400 401 401 398 398 396 394 388 384 382 379 377 371 371 367 362 361 357 354 353 349 346 344 343 342 340 338 338 337 335 329 326 325 325 328 327 328 328 329 334 337 343 344 342 342 340 337 335 333 336 342 349 375 397 422 447 478 535 563 586 611 635 657 701 716 732 746 758 777 792 800 811 822 830 844 849 849 848 845 831 815 788
853 853 851 849 844 838 836 834 834 837 846 847 892 1787 2077 2447 2429 2320 2329 2368 2400 2412 2430 2446 2458 2485 2499 2512 2523 2533 2540 2554 2560 2567 2570 2573 2575 2577 2576 2576 2576 2577 2576 2576 2576 2576 2575 2575 2576 2577 2582 2583 2591 2584 2590 2596 2601 2608 2609 2609 2609 2609 2608 2609 2609 2609 2610 2610 2608 2607 2607 2607 2605 2604 2596 2589 2587 2579 2570 2558 2553 2548 2548 2547 2545 2545 2545 2544 2546 2547 2548 2551 2551 2550 2548 2548 2544 2544 2544 2542 2532 2528 2523 2516 2509 2504 2492 2484 2475 2468 2458 2446 2438 2431 2422 2416 2409 2394 2388 2383 2375 2368 2356 2348 2344 2339 2332 2320 2315 2305 2296 2245 1721 1311 971 700 674 589 550 535 524 513 507 493 492 489 482 480 476 471 467 467 465 463 459 458 458 457 455 457 461 464 465 468 469 475 475 477 480 481 482 481 483 484 482 482 479 479 478 476 474 474 472 470 469 469 468 469 467 469 472 471 472 472 473 473 471 468 468 467 465 465 463 461 459 458 458 457 455 455 451 451 449 447 444 442 440 438 435 429 425 423 420 417 416 414 412 412 413 414 414 413 413 414 415 411 411 407 404 402 398 389 385 382 378 376 369 367 365 361 361 358 358 356 354 353 351 349 347 345 345 344 339 338 333 328 324 320 313 311 307 302 300 293 289 287 283 276 271 264 264 259 257 256 257 257 257 256 256 263 263 269 277 283 288 297 301 304 310 312 321 322 327 330 333 338 340 343 345 348 351 355 360 363 368 372 373 376 377 380 383 384 392 395 398 399 400 403 404 407 410 416 420 423 426 427 423 428 434 435 436 438 440 441 443 446 447 448 451 460 463 466 471 474 478 479 480 480 480 479 479 478 474 472 467 463 461 461 457 457 451 446 442 437 436 436 427 425 423 421 420 418 418 417 417 415 414 414 413 411 409 409 407 402 400 398 395 394 392 390 388 386 385 386 386 386 385 385 387 387 392 393 397 399 400 399 401 400 400 399 400 400 400 399 401 398 398 397 395 393 386 384 382 378 376 371 368 366 361 361 357 355 354 351 347 345 342 342 340 338 339 338 334 334 330 330 329 332 333 335 334 336 339 343 346 349 347 345 344 342 340 338 337 344 361 376 394 417 441 501 527 555 579 604 629 673 694 710 727 741 766 777 792 800 811 830 838 844 846 845 845 833 822 807 788
850 849 847 844 839 830 828 826 824 824 822 837 884 1779 2070 2079 2422 2294 2303 2358 2375 2399 2416 2432 2446 2461 2475 2502 2515 2522 2530 2538 2552 2558 2563 2566 2567 2570 2569 2569 2569 2570 2570 2569 2569 2569 2568 2568 2569 2570 2573 2573 2578 2584 2590 2588 2594 2598 2601 2602 2604 2603 2603 2604 2604 2604 2605 2605 2604 2604 2603 2603 2601 2601 2601 2587 2583 2575 2567 2562 2548 2544 2544 2544 2542 2541 2541 2541 2540 2540 2541 2544 2542 2542 2542 2541 2538 2537 2537 2535 2531 2523 2518 2511 2504 2499 2492 2478 2472 2463 2458 2454 2436 2429 2420 2413 2405 2398 2385 2378 2369 2363 2357 2342 2337 2332 2325 2321 2308 2299 2291 2289 1713 1622 961 700 676 590 566 535 523 513 506 497 493 490 483 482 480 475 471 468 466 465 463 459 459 458 456 458 462 463 464 467 468 473 475 477 480 480 482 482 484 487 485 484 482 481 481 477 477 477 473 471 470 470 471 469 467 470 473 472 473 473 474 474 473 473 472 472 470 469 466 463 463 463 462 462 461 459 455 455 453 451 447 445 443 439 434 428 426 424 421 417 417 415 416 416 416 419 418 418 417 418 420 416 415 412 410 408 404 395 391 384 381 379 371 369 366 365 365 361 360 360 358 358 356 353 351 348 347 347 341 341 335 330 328 328 320 318 313 308 306 298 295 293 289 282 275 268 264 259 261 261 260 260 259 259 258 263 262 268 276 284 290 296 301 304 310 314 324 326 329 332 335 341 342 347 347 349 352 357 361 364 369 373 374 377 377 380 384 390 393 396 399 398 400 402 403 405 408 412 416 419 421 424 423 428 432 433 434 435 438 438 439 442 443 444 452 455 459 461 465 468 472 474 473 475 474 474 473 473 471 469 463 461 459 457 453 453 447 442 440 434 434 430 425 423 421 419 418 416 415 415 415 414 415 413 413 411 409 406 406 402 400 398 394 393 391 389 387 385 386 386 385 385 385 384 389 388 393 394 399 398 399 399 399 398 397 397 398 398 398 397 398 398 396 395 393 386 384 382 380 376 374 367 366 366 362 362 356 356 355 352 350 347 344 343 341 339 339 339 339 338 335 334 337 337 338 339 339 340 344 346 349 352 351 349 348 346 344 342 342 353 364 375 393 411 467 495 522 548 569 620 643 666 687 705 722 751 762 777 790 800 821 829 837 843 846 845 838 828 817 800 780
852 849 844 839 833 828 823 819 817 817 815 829 875 1772 2063 2072 2433 2431 2297 2318 2334 2376 2385 2419 2433 2451 2465 2479 2504 2514 2522 2530 2537 2550 2554 2554 2557 2558 2560 2559 2559 2558 2556 2556 2556 2555 2555 2555 2554 2559 2558 2558 2563 2569 2573 2588 2594 2598 2594 2599 2602 2601 2601 2602 2602 2602 2603 2603 2602 2602 2602 2601 2601 2601 2599 2590 2578 2570 2561 2556 2548 2539 2539 2539 2537 2536 2536 2535 2535 2535 2536 2536 2534 2533 2533 2533 2533 2530 2530 2528 2525 2519 2511 2504 2500 2495 2488 2485 2471 2463 2458 2451 2444 2429 2417 2408 2401 2393 2379 2372 2364 2357 2352 2345 2332 2326 2321 2314 2306 2292 2287 2148 1777 1475 949 684 663 587 564 546 519 511 505 497 493 491 485 483 481 478 474 470 468 466 462 460 458 458 456 459 461 464 465 468 468 472 475 476 479 480 482 482 483 486 484 484 483 481 480 477 476 476 474 472 471 473 474 472 469 472 475 475 476 475 475 475 474 474 473 473 471 470 467 466 466 465 465 464 464 463 461 461 459 457 451 448 446 442 437 430 426 422 418 418 418 415 416 416 417 420 419 420 420 421 422 422 420 416 412 410 407 399 396 389 385 381 374 372 368 366 366 364 363 363 361 360 358 356 354 350 350 350 344 343 338 333 331 330 326 324 321 315 312 306 302 299 295 288 279 274 270 265 261 261 259 259 258 258 258 262 262 266 274 282 288 294 298 303 311 314 323 326 329 332 335 340 342 346 346 349 353 356 361 365 370 374 375 378 378 381 385 391 394 397 398 398 400 402 403 404 407 412 413 416 417 420 419 427 432 433 429 430 433 432 433 436 438 439 448 451 452 454 457 461 464 467 466 468 469 468 468 467 465 463 459 457 455 453 450 445 442 438 436 432 430 426 423 421 419 417 414 414 413 413 413 412 413 411 411 409 408 406 406 402 400 398 394 391 389 387 385 383 384 384 383 383 383 384 388 386 391 392 395 396 396 395 395 394 392 392 393 393 392 393 391 392 390 390 384 381 380 380 378 374 367 363 363 362 362 358 356 355 355 353 349 348 345 344 344 344 341 339 339 338 336 337 338 338 339 340 340 343 344 345 348 351 349 350 350 348 346 343 346 352 364 373 391 432 464 488 515 539 587 612 635 658 679 697 730 744 757 774 787 811 819 827 835 841 846 845 837 823 812 795 755
853 849 847 833 828 821 816 814 812 810 808 822 885 922 2055 2065 2426 2424 2279 2306 2322 2364 2369 2388 2420 2439 2455 2469 2483 2496 2512 2519 2527 2535 2538 2541 2544 2547 2546 2546 2545 2545 2543 2543 2543 2540 2540 2540 2539 2541 2544 2545 2548 2554 2560 2568 2584 2591 2594 2599 2595 2596 2598 2599 2599 2598 2598 2599 2599 2598 2598 2598 2597 2594 2592 2585 2578 2563 2555 2549 2541 2536 2534 2533 2531 2531 2531 2531 2530 2530 2529 2529 2529 2527 2526 2526 2526 2524 2523 2521 2518 2513 2509 2497 2495 2490 2485 2481 2473 2459 2454 2445 2439 2432 2417 2408 2394 2386 2379 2365 2357 2350 2345 2338 2330 2319 2314 2307 2299 2294 2282 1982 1711 1353 1018 656 635 585 559 542 515 507 501 494 491 490 485 483 481 477 475 471 468 467 463 461 459 459 457 460 462 462 465 466 467 470 471 474 477 478 479 482 483 484 482 481 479 477 477 475 474 474 472 469 469 470 472 470 469 472 475 476 476 475 474 474 474 473 473 472 470 470 466 466 465 465 464 464 464 463 461 462 460 458 454 447 445 441 434 427 423 421 418 417 417 415 416 416 417 422 424 425 424 425 425 425 422 419 415 411 408 400 395 388 384 381 373 371 368 366 365 363 363 362 360 360 358 355 353 350 349 349 343 343 337 332 330 330 326 324 320 315 313 307 305 300 294 287 278 273 269 264 260 260 259 259 261 261 260 265 264 267 275 283 290 298 299 306 314 316 324 325 330 333 334 340 341 346 345 348 352 355 360 365 369 374 375 378 377 380 385 389 392 396 398 397 398 400 401 402 405 410 409 412 411 414 414 422 424 427 429 430 429 428 430 431 432 440 444 446 447 450 453 459 460 463 463 464 463 463 462 462 460 458 454 452 450 449 447 443 441 438 434 430 428 424 422 420 418 416 414 413 413 413 412 411 413 411 410 408 408 406 405 401 399 392 392 391 389 385 383 382 384 383 383 383 383 383 386 386 389 391 391 392 393 393 393 390 390 390 391 390 390 391 389 390 385 385 380 378 378 376 376 370 365 363 362 362 359 359 357 357 356 354 350 350 346 346 345 343 341 339 338 338 336 340 339 341 340 342 344 344 345 347 349 352 352 353 353 352 348 348 347 354 363 373 407 429 457 481 508 554 578 603 626 649 690 708 725 739 754 770 798 811 819 827 833 841 842 842 835 823 792 768 750
853 849 845 842 833 818 811 807 805 803 802 817 878 913 1622 2057 2419 2417 2267 2277 2293 2329 2353 2374 2389 2409 2446 2462 2476 2489 2497 2512 2520 2528 2531 2531 2533 2535 2536 2536 2536 2535 2533 2531 2531 2531 2529 2528 2528 2529 2530 2533 2538 2544 2550 2558 2569 2583 2588 2592 2595 2597 2594 2595 2595 2595 2594 2596 2595 2595 2595 2594 2594 2590 2588 2582 2575 2570 2553 2548 2541 2534 2534 2528 2526 2526 2524 2524 2523 2523 2523 2522 2522 2520 2519 2519 2519 2517 2517 2514 2511 2506 2504 2499 2490 2485 2479 2476 2467 2461 2447 2439 2432 2425 2418 2401 2394 2386 2372 2365 2350 2343 2340 2333 2324 2314 2307 2300 2292 2287 2281 1975 1703 1345 796 769 615 577 552 538 523 504 499 492 490 490 490 482 480 480 479 479 472 470 468 464 464 460 458 461 464 463 466 465 467 469 469 470 475 476 477 480 480 484 480 479 479 477 476 474 474 473 471 470 470 471 473 471 472 474 477 477 477 476 475 475 473 473 472 472 471 471 467 467 466 466 465 465 465 464 463 465 461 459 455 448 446 441 435 429 424 422 419 418 418 418 417 418 419 422 424 427 427 428 428 427 425 421 418 414 410 403 398 389 387 383 380 374 370 367 366 364 364 363 361 361 359 356 354 351 350 350 344 344 339 333 331 331 327 325 323 317 315 310 308 304 297 288 279 274 272 267 263 263 262 261 261 267 266 270 270 273 281 287 293 301 302 308 316 320 327 326 331 332 333 339 341 345 345 348 352 355 359 362 367 373 372 375 378 380 383 388 391 396 397 397 398 399 400 400 403 407 407 408 408 411 416 419 421 424 425 426 429 428 426 427 429 436 437 439 440 443 450 452 451 456 457 459 458 457 457 457 455 452 452 450 446 446 443 440 436 434 430 427 424 422 420 418 416 414 412 411 411 411 410 409 409 409 408 406 406 403 401 398 396 390 390 389 387 385 384 384 385 385 384 383 383 384 386 384 387 389 389 388 390 391 390 388 388 388 389 388 388 387 387 387 381 379 375 373 373 372 368 366 364 364 363 361 361 360 360 360 359 355 353 353 349 349 348 346 345 343 343 339 339 340 339 340 340 343 344 345 345 348 352 353 355 354 354 355 353 352 352 355 373 389 407 428 455 474 522 545 570 595 618 662 682 702 718 734 765 780 796 809 821 829 840 841 842 842 835 809 794 770 751
857 850 847 840 830 824 811 805 801 799 799 800 876 905 1614 2041 2050 2410 2254 2263 2279 2298 2340 2359 2377 2399 2418 2450 2465 2477 2487 2495 2510 2518 2523 2522 2524 2525 2524 2524 2524 2524 2523 2519 2519 2519 2517 2517 2516 2517 2517 2520 2521 2535 2542 2549 2561 2568 2581 2585 2588 2591 2593 2590 2593 2593 2593 2594 2594 2593 2593 2592 2592 2590 2583 2578 2573 2568 2561 2547 2540 2534 2532 2530 2528 2524 2522 2520 2520 2520 2517 2517 2517 2515 2515 2512 2512 2510 2510 2510 2504 2499 2497 2493 2487 2479 2474 2469 2461 2454 2445 2432 2425 2418 2411 2403 2387 2379 2372 2365 2441 2336 2333 2326 2317 2312 2300 2293 2285 1939 2281 1312 1148 778 774 752 614 568 545 530 519 511 497 492 490 489 489 482 481 481 481 480 476 474 472 468 468 464 460 463 465 464 465 465 466 467 467 468 472 474 475 478 477 482 480 479 478 476 476 473 473 473 471 470 470 471 472 472 473 476 477 476 476 476 475 475 473 472 472 471 471 470 470 470 469 468 468 466 466 465 465 466 462 460 457 448 446 440 435 430 428 422 420 420 419 419 420 421 422 425 426 427 427 431 431 429 426 422 419 415 410 406 397 389 388 385 381 375 371 368 367 365 365 364 362 360 358 356 354 350 350 349 346 343 338 333 331 330 326 324 322 317 315 311 310 307 303 294 285 280 278 273 269 269 268 267 267 267 266 273 276 277 284 290 296 304 305 309 317 322 326 327 330 332 333 339 340 345 344 347 351 354 356 359 363 371 370 375 376 381 385 388 393 395 397 396 397 397 398 398 401 403 406 408 407 410 413 416 419 420 423 427 427 426 426 423 423 431 432 433 435 434 442 445 446 451 452 453 454 454 453 453 451 450 448 448 444 444 440 439 436 430 428 424 420 420 418 418 414 412 411 411 410 410 409 409 409 408 408 404 403 401 399 396 393 390 389 387 385 384 384 384 383 383 382 381 381 382 384 382 383 385 385 385 386 387 387 385 384 384 383 384 384 382 380 380 377 375 371 369 369 367 366 366 364 363 363 362 362 362 361 361 358 356 354 354 352 351 351 350 350 348 344 340 340 339 339 340 339 341 342 343 343 350 352 353 354 354 355 355 352 352 352 363 372 389 405 426 450 492 514 537 560 585 631 654 673 695 711 742 759 775 791 806 818 834 840 841 843 842 823 809 796 775 756
860 853 851 841 831 824 817 810 801 799 799 800 816 904 1614 2033 2043 2405 2235 2245 2262 2283 2301 2346 2365 2387 2406 2426 2440 2465 2475 2483 2491 2498 2511 2514 2514 2513 2513 2512 2512 2512 2511 2510 2507 2507 2505 2505 2505 2506 2505 2507 2510 2516 2525 2541 2552 2560 2568 2572 2582 2586 2589 2590 2593 2588 2587 2589 2588 2588 2588 2587 2587 2585 2582 2571 2566 2562 2556 2547 2535 2532 2528 2528 2526 2522 2518 2518 2518 2518 2514 2512 2512 2510 2509 2511 2508 2507 2506 2506 2504 2500 2497 2495 2493 2492 2492 2483 2483 2481 2481 2481 2480 2480 2479 2479 2479 2446 2444 2442 2441 2488 2488 2487 2487 2487 2486 2109 2107 1758 2100 1381 1372 1008 630 608 594 578 534 519 509 502 497 489 487 487 487 483 481 480 480 481 478 477 475 473 472 469 463 466 466 465 467 466 467 468 468 469 470 471 473 476 475 476 477 477 478 476 472 470 469 469 467 466 466 467 470 470 471 470 475 474 474 475 475 474 472 472 471 471 470 470 469 469 469 468 468 466 465 465 464 464 460 458 454 449 443 438 434 429 427 425 423 422 422 421 422 425 427 430 431 432 431 431 430 428 428 422 418 415 409 406 397 388 388 384 380 375 371 367 367 365 364 364 362 360 358 355 353 350 349 349 345 343 337 332 330 330 326 324 322 316 314 310 310 306 302 294 285 279 277 272 270 270 269 268 268 268 269 273 277 278 285 289 295 303 304 311 318 321 326 327 330 331 334 338 340 344 344 345 349 352 352 355 359 367 367 371 374 377 383 386 389 392 393 394 394 393 394 394 397 400 401 402 402 405 409 412 415 416 419 423 423 423 422 423 426 425 427 428 429 429 435 438 439 445 447 446 447 448 448 448 447 445 443 442 442 438 436 436 432 427 422 420 417 415 414 412 408 406 406 405 405 404 406 405 405 405 402 400 400 398 396 392 391 389 387 385 383 382 382 382 383 379 378 378 377 379 382 379 379 382 381 381 384 383 383 381 380 380 381 381 379 377 376 372 370 368 366 366 365 365 364 364 362 361 361 360 360 360 361 360 358 356 354 354 351 351 350 350 350 346 342 338 338 337 338 338 339 341 343 343 345 348 351 353 354 355 356 356 354 353 358 364 374 388 405 446 466 485 507 528 551 599 622 645 665 686 721 736 752 768 785 814 822 830 837 838 839 834 825 813 801 782 748
860 853 851 846 830 822 813 807 801 799 799 803 819 878 899 2026 2035 2398 2415 2212 2245 2269 2287 2311 2334 2377 2396 2414 2431 2444 2468 2474 2482 2488 2494 2500 2500 2500 2500 2499 2499 2498 2498 2496 2494 2494 2492 2491 2491 2491 2492 2495 2499 2506 2515 2525 2544 2551 2558 2564 2570 2579 2582 2584 2587 2588 2587 2585 2585 2585 2584 2584 2584 2583 2580 2574 2564 2561 2554 2545 2540 2533 2528 2526 2524 2520 2520 2516 2516 2516 2512 2510 2508 2503 2502 2504 2502 2500 2499 2499 2497 2495 2493 2491 2494 2494 2493 2493 2493 2492 2492 2492 2491 2491 2491 2490 2490 2490 2489 2489 2489 2488 2488 2482 2482 2482 1357 1003 641 638 631 631 627 621 606 588 573 557 522 509 500 493 490 486 484 483 483 481 479 478 478 481 477 477 476 476 475 471 468 467 467 466 468 467 468 468 467 467 467 468 469 472 471 471 474 473 474 472 472 471 469 468 466 466 466 466 468 469 470 470 474 474 473 475 474 474 472 471 471 470 470 469 469 469 468 468 467 465 465 464 464 463 460 457 454 449 443 438 434 430 428 426 424 423 423 423 424 425 426 429 430 432 431 430 430 428 427 421 418 414 409 405 396 387 387 383 380 374 370 370 370 368 365 365 361 359 357 357 354 351 350 350 346 342 337 331 329 329 325 325 321 317 315 309 309 307 303 296 284 280 277 276 274 274 273 273 272 272 273 276 277 278 287 290 298 304 305 312 320 322 327 328 331 332 331 336 339 342 342 346 347 348 348 351 357 363 364 369 372 375 381 384 387 390 391 392 391 393 392 392 395 396 397 398 398 402 405 408 411 412 415 420 419 419 418 420 422 425 421 423 422 426 429 432 437 440 442 442 443 445 443 444 443 443 441 440 440 434 432 432 430 423 417 415 413 411 411 407 405 403 402 402 401 401 402 402 401 401 400 398 396 396 394 388 388 385 383 383 379 379 378 378 379 378 378 376 375 378 376 375 375 378 378 379 380 378 379 377 377 378 377 377 375 373 370 368 368 366 364 363 363 362 362 362 360 359 359 358 360 359 360 360 359 357 355 353 352 352 352 351 349 347 343 339 339 338 340 339 341 342 343 344 345 348 349 351 353 355 356 356 355 358 361 367 377 390 421 441 460 480 498 520 566 591 614 637 657 696 714 729 747 764 796 813 822 831 837 840 839 837 830 818 809 778 763
865 854 851 845 840 830 813 808 804 804 802 803 841 890 892 1599 2028 2329 2319 2185 2199 2251 2273 2298 2322 2344 2388 2405 2424 2437 2450 2467 2475 2481 2486 2487 2487 2486 2486 2486 2486 2485 2485 2483 2481 2481 2480 2478 2478 2477 2480 2482 2489 2496 2507 2516 2524 2545 2549 2556 2562 2566 2577 2580 2583 2584 2584 2585 2581 2581 2581 2581 2580 2578 2576 2571 2564 2559 2550 2543 2540 2535 2531 2526 2524 2520 2520 2516 2516 2515 2512 2510 2508 2498 2496 2497 2495 2495 2493 2492 2490 2488 2488 2484 2487 2487 2487 2486 2487 2487 2487 2486 2486 2486 2485 2485 2485 2484 2484 2484 2111 1351 1722 1722 2482 592 603 616 623 613 608 606 600 595 578 564 551 539 522 498 492 486 483 481 480 479 479 479 478 478 477 480 476 478 477 477 475 473 469 467 468 467 467 467 466 467 467 466 466 466 467 468 468 469 472 473 474 472 471 471 469 468 466 465 465 466 467 467 468 468 471 472 471 473 472 472 469 469 469 468 468 469 468 468 468 467 467 465 464 464 463 463 459 455 452 446 442 439 435 431 429 429 427 426 426 425 425 428 429 430 431 433 432 432 431 428 427 421 417 414 408 405 396 387 387 383 381 377 371 369 369 367 365 364 361 359 357 354 352 348 348 348 344 340 335 329 329 327 324 324 320 317 316 311 310 308 304 297 287 283 283 281 280 280 279 279 278 278 278 280 282 281 287 291 299 305 307 313 319 322 326 327 330 332 331 336 337 340 339 342 343 345 344 347 356 361 362 369 370 374 377 380 383 386 387 386 386 387 389 388 392 394 395 396 394 399 401 404 407 409 413 418 417 417 416 416 417 420 421 423 422 424 427 430 433 435 437 438 440 441 441 440 438 437 437 437 434 431 429 428 426 419 417 415 411 411 409 405 403 400 400 400 399 399 400 400 399 398 398 398 396 395 390 388 387 383 381 377 377 377 376 374 375 375 374 376 377 378 375 375 375 378 377 378 378 378 379 375 374 376 375 375 373 371 368 366 366 364 362 361 361 360 360 360 359 359 358 358 359 360 360 361 361 359 356 354 354 353 353 352 350 348 343 341 340 338 339 339 340 342 342 344 345 346 347 350 351 354 356 355 358 361 364 370 378 403 419 437 453 472 511 533 557 582 605 628 670 688 706 722 740 775 791 808 821 829 838 840 839 842 837 821 804 792 780
868 862 852 847 841 831 823 811 807 807 806 806 841 890 892 1591 2011 2322 2278 2160 2178 2202 2234 2284 2311 2334 2356 2377 2416 2430 2441 2453 2459 2471 2474 2474 2474 2473 2473 2472 2472 2472 2470 2468 2464 2464 2464 2462 2463 2462 2467 2468 2470 2485 2498 2508 2514 2528 2542 2549 2555 2560 2567 2573 2578 2579 2581 2580 2581 2581 2579 2577 2577 2577 2573 2567 2562 2557 2552 2543 2540 2536 2532 2529 2523 2521 2521 2518 2517 2517 2513 2511 2506 2502 2497 2495 2493 2491 2489 2487 2483 2482 2481 2479 2480 2480 2478 2479 2479 2480 2480 2480 2479 2479 2478 2478 1734 1733 977 970 966 964 964 963 961 592 586 594 597 591 582 579 572 565 561 539 527 519 505 497 483 479 479 477 476 476 477 477 478 477 477 480 476 477 478 476 474 472 470 468 467 467 467 466 466 467 466 466 464 464 463 466 465 467 470 469 472 471 471 471 469 468 465 465 465 464 467 466 468 467 469 469 469 470 470 470 467 467 466 466 466 468 468 468 467 467 466 464 464 463 463 463 459 455 451 446 444 438 436 434 432 432 429 429 429 428 428 429 428 430 431 432 431 431 431 427 427 421 417 413 408 404 395 386 386 382 379 373 369 369 369 367 366 362 360 358 354 352 348 345 344 344 340 336 332 327 327 326 324 324 321 318 317 310 310 309 306 300 291 288 287 285 285 286 285 285 284 284 284 285 286 286 290 291 299 305 306 311 317 319 324 325 328 330 329 332 333 333 334 337 339 341 340 343 353 357 358 363 366 374 375 378 381 382 383 383 382 384 385 384 389 390 391 393 392 396 399 402 404 405 411 415 415 415 414 415 417 420 419 422 423 422 424 427 430 432 433 433 434 436 437 435 434 434 432 431 429 425 423 423 421 415 413 413 409 407 403 401 399 397 396 396 397 397 398 398 397 396 396 394 394 391 389 387 385 383 381 377 377 376 376 374 376 376 376 377 377 376 373 373 373 372 372 371 371 372 372 368 371 372 372 371 369 369 366 364 364 362 360 359 359 358 358 357 357 357 358 358 358 360 359 361 360 356 356 354 353 353 351 350 348 346 341 337 336 334 336 335 337 339 340 343 345 344 347 348 349 352 355 355 358 361 364 370 386 399 415 430 445 481 503 524 549 572 620 640 661 679 698 714 749 767 783 800 816 832 835 838 838 843 832 828 819 807 800
867 862 857 855 841 831 822 817 812 811 811 815 820 839 892 1583 2004 2013 2315 2140 2156 2180 2215 2243 2296 2320 2345 2365 2385 2418 2433 2444 2452 2458 2464 2464 2463 2463 2463 2462 2460 2460 2457 2456 2449 2449 2448 2447 2446 2447 2454 2455 2456 2466 2490 2499 2505 2522 2529 2542 2548 2553 2561 2564 2568 2576 2577 2577 2578 2578 2579 2570 2570 2570 2568 2561 2555 2550 2545 2540 2534 2532 2529 2530 2527 2521 2521 2516 2515 2515 2511 2509 2504 2499 2495 2491 2488 2486 2484 2482 2478 2475 2474 2474 2472 2473 2470 2471 2469 2472 2473 2473 2472 2472 2472 2471 1726 1726 969 967 958 956 956 955 953 578 586 572 570 566 564 552 547 538 536 526 505 500 492 485 481 475 475 473 473 472 473 476 476 475 475 477 475 477 478 476 474 472 470 467 469 465 464 464 464 465 464 464 462 461 461 464 465 464 467 469 470 469 470 470 468 467 465 461 462 462 465 464 466 465 468 468 469 470 470 469 469 466 466 466 465 468 467 467 467 466 466 464 463 463 462 462 458 454 451 445 443 438 434 432 430 430 427 427 426 426 427 427 428 429 430 432 431 431 430 427 426 420 417 413 406 404 400 386 384 380 377 375 369 368 366 366 366 362 360 358 355 353 349 346 344 340 338 336 330 325 324 324 323 323 321 317 317 309 309 309 303 300 291 287 287 285 284 285 285 284 284 284 283 284 285 287 291 293 300 305 307 312 318 321 325 327 328 329 328 331 331 331 330 333 336 337 337 340 350 355 358 363 364 372 373 374 380 382 383 382 382 383 384 384 387 388 389 391 390 394 397 400 402 403 410 415 415 414 414 415 416 419 419 420 421 422 422 423 428 430 431 431 431 432 433 433 432 432 430 427 427 423 421 421 417 413 411 411 407 403 401 399 397 396 396 395 397 396 396 396 395 394 394 392 392 391 387 385 385 381 377 377 376 376 376 375 374 374 374 375 376 376 373 373 372 372 371 371 371 370 368 366 369 368 368 368 364 363 363 361 360 356 356 356 355 355 354 354 355 355 356 357 357 358 359 359 358 356 356 354 353 351 350 348 346 344 338 336 336 334 335 335 338 339 340 341 343 345 346 348 349 352 353 353 356 359 362 374 384 397 412 427 456 473 492 514 539 585 610 630 653 671 706 724 740 758 775 791 821 829 835 838 838 844 840 838 833 826 817
870 865 857 855 849 831 822 817 813 811 815 822 831 844 848 1583 1997 2045 1952 1894 2132 2160 2202 2233 2258 2310 2334 2358 2378 2397 2426 2437 2445 2451 2456 2457 2457 2456 2456 2456 2453 2452 2446 2444 2438 2434 2433 2431 2431 2433 2434 2443 2444 2457 2465 2481 2499 2510 2518 2529 2535 2546 2554 2557 2561 2566 2570 2570 2571 2571 2573 2570 2565 2565 2563 2559 2550 2545 2542 2536 2534 2531 2529 2530 2526 2524 2521 2517 2515 2515 2515 2509 2504 2499 2495 2493 2488 2486 2484 2480 2480 2473 2471 2469 2467 2465 2461 2461 2459 2465 2467 2466 2466 2465 2465 2090 961 961 586 584 579 571 569 569 567 567 567 572 550 545 543 530 525 516 514 506 490 485 480 476 476 470 469 469 469 468 471 472 473 473 473 474 475 476 477 475 475 471 469 467 468 466 466 465 463 464 464 463 461 461 461 460 463 464 467 467 468 467 467 466 464 464 462 461 460 460 461 460 462 463 464 464 468 469 469 470 470 468 467 467 466 466 465 467 466 466 466 463 463 462 462 462 458 454 450 445 443 437 434 432 429 429 427 426 426 426 425 425 426 427 427 428 428 427 426 423 422 420 413 409 406 400 395 385 383 381 378 376 372 370 368 367 367 363 361 359 357 353 349 347 343 339 337 333 328 323 322 322 321 321 320 317 316 309 309 308 303 299 292 290 289 287 287 288 287 287 287 286 286 287 288 289 294 294 301 304 307 313 319 320 326 326 329 330 330 332 330 330 328 329 332 333 333 336 348 355 358 361 362 371 372 374 380 381 382 382 381 383 384 383 385 388 389 392 394 396 399 402 401 406 408 413 413 412 412 413 414 417 417 418 419 420 422 419 422 428 429 429 429 430 431 431 430 430 428 425 425 421 419 419 415 411 409 409 405 401 399 397 395 394 394 393 393 394 394 393 393 392 392 392 391 391 387 385 384 379 377 376 376 376 373 374 374 374 373 375 376 375 373 373 372 371 371 371 370 368 367 365 367 366 364 362 360 360 359 357 355 353 352 352 352 351 352 352 353 353 354 355 355 356 357 356 356 356 355 353 353 350 348 346 346 339 337 334 334 332 333 334 336 337 340 341 344 345 346 346 347 350 351 351 354 357 366 372 380 394 405 429 446 462 484 504 553 577 602 621 645 681 697 716 732 750 783 800 813 824 832 838 845 846 847 847 845 839 841
879 873 860 856 849 840 830 817 813 811 812 815 836 879 957 1006 1576 1801 1855 1875 2030 2110 2149 2222 2248 2274 2300 2352 2371 2390 2405 2419 2436 2441 2444 2444 2443 2446 2446 2446 2445 2443 2435 2431 2424 2419 2419 2416 2416 2419 2420 2430 2054 2066 2070 2088 2097 2115 2119 2129 2133 2138 2547 2550 2555 2559 2566 2565 2566 2566 2567 2567 2565 2559 2558 2554 2552 2543 2540 2536 2536 2534 2530 2531 2528 2526 2522 2518 2517 2516 2513 2509 2504 2497 2495 2493 2491 2485 2483 2480 2480 2476 2469 2462 2460 2458 2456 2449 2447 2440 2442 2459 2459 2458 2458 2083 955 953 577 575 570 566 559 559 557 556 553 552 550 529 526 520 508 499 497 490 485 475 473 470 470 468 466 465 467 466 466 468 470 473 472 474 474 476 477 475 475 471 469 467 468 466 465 465 464 466 465 461 459 459 458 458 459 460 463 463 462 462 461 461 461 460 458 459 460 460 457 458 460 459 462 462 465 467 467 468 468 466 465 465 466 466 465 466 466 465 465 465 462 462 462 461 461 452 450 444 441 440 433 431 429 429 427 426 424 423 423 423 424 423 423 424 424 423 423 419 419 418 411 407 402 400 391 382 381 381 379 377 373 371 369 368 368 362 360 358 356 354 348 343 341 339 337 331 328 322 322 321 321 320 320 316 316 310 310 309 304 300 295 293 292 290 290 292 292 292 291 291 290 290 291 292 297 299 304 305 308 313 315 316 321 321 324 327 326 327 325 325 326 325 328 329 329 332 346 353 356 358 360 369 370 372 378 381 382 383 383 382 384 385 386 389 390 393 396 397 400 403 403 407 410 411 411 410 410 411 412 414 413 416 417 417 418 419 425 426 428 427 427 428 427 427 427 426 422 422 421 418 416 412 410 406 404 403 396 394 392 390 390 389 388 388 389 391 392 391 391 390 390 388 389 389 387 385 384 380 378 378 377 377 375 376 375 375 375 374 375 375 373 373 373 373 372 372 372 369 367 365 365 364 360 360 360 359 357 355 354 352 352 352 351 350 350 351 351 354 353 355 354 356 357 356 356 355 355 353 352 350 348 346 344 338 336 334 334 332 333 334 335 337 338 341 342 343 344 346 345 346 347 347 350 358 362 369 377 388 408 419 436 452 474 517 540 563 588 610 654 673 689 707 724 758 775 791 805 816 834 838 845 848 854 854 857 856 859
882 876 871 856 847 839 828 820 813 811 812 815 828 879 957 1006 1352 1728 1836 1855 1946 2090 2114 2210 2234 2262 2288 2315 2362 2382 2396 2410 2422 2432 2435 2435 2435 2436 2437 2437 2435 2433 2428 2421 2414 2407 2407 2406 2404 2411 2412 2046 2046 2058 2063 2081 2090 2096 2112 2122 2126 2131 2136 2148 2550 2554 2562 2562 2563 2563 2566 2565 2563 2559 2556 2554 2555 2548 2544 2533 2531 2530 2528 2528 2526 2522 2520 2519 2511 2511 2507 2504 2504 2492 2490 2489 2486 2484 2482 2478 2476 2472 2469 2457 2455 2450 2449 2444 2437 2432 2433 2453 2452 2452 2451 1689 947 569 569 567 561 558 554 550 548 546 542 539 535 529 514 508 501 487 485 478 475 469 467 467 466 466 464 463 464 464 464 463 468 469 472 471 473 475 477 475 472 470 468 466 467 465 465 464 464 465 465 461 457 457 455 454 456 455 456 456 455 455 454 454 453 453 454 455 457 456 455 455 458 457 459 460 461 464 463 466 466 464 463 463 464 465 465 464 464 463 463 463 460 460 460 459 457 450 448 442 439 437 431 431 429 428 426 425 423 423 423 422 422 421 421 422 422 421 421 417 417 415 407 403 400 396 387 378 378 377 375 373 371 369 367 365 364 360 358 354 352 350 345 339 336 335 332 327 322 318 318 318 319 318 318 316 315 310 309 309 304 300 294 292 292 290 289 292 291 291 291 290 290 289 291 292 296 301 305 305 306 309 315 316 319 320 323 324 324 323 323 323 322 323 326 327 327 336 343 349 352 356 362 367 368 370 376 380 380 381 381 380 382 384 386 388 390 393 395 397 400 403 402 407 408 409 407 407 406 407 409 410 409 412 413 415 416 417 425 423 424 424 423 424 424 423 423 423 420 420 418 414 412 408 406 402 400 400 392 390 390 388 386 385 385 384 386 387 390 389 389 389 388 386 387 387 385 384 378 380 378 377 377 378 376 377 377 376 376 375 377 376 374 374 373 374 374 372 368 369 367 365 365 360 360 360 358 357 355 354 352 350 350 349 349 349 348 348 350 350 351 353 352 355 355 354 354 353 353 352 350 348 346 344 340 338 336 334 334 331 332 334 335 336 336 337 338 340 339 342 345 341 342 343 349 354 359 365 372 388 399 411 427 444 483 507 528 551 576 624 646 664 681 699 734 750 767 783 796 819 827 835 843 848 861 864 870 873 876
883 876 871 862 855 837 827 818 813 811 812 815 827 838 881 1068 1344 1717 1790 1817 1927 2071 2096 2115 2196 2250 2274 2303 2331 2371 2387 2404 2415 2421 2429 2428 2428 2429 2431 2430 2428 2426 2421 2416 2404 2397 2397 2395 2394 2404 2405 2039 2039 2040 2056 2073 2083 2089 2100 2114 2119 2124 2128 2135 2543 2547 2555 2555 2555 2556 2559 2558 2558 2560 2556 2552 2552 2545 2543 2532 2530 2530 2528 2526 2526 2522 2520 2518 2515 2509 2507 2502 2502 2495 2488 2487 2482 2482 2482 2478 2476 2472 2469 2463 2453 2446 2444 2437 2430 2418 2416 2408 2411 2427 2445 1682 938 561 560 558 553 549 545 542 539 537 532 528 528 517 514 498 491 486 475 470 468 464 464 461 461 461 459 458 459 459 458 458 461 463 468 468 471 470 473 471 469 468 468 464 464 463 463 462 462 461 461 459 457 453 451 450 452 450 449 449 448 448 447 447 446 448 449 452 453 454 455 453 456 455 456 456 457 462 461 464 464 463 463 462 464 463 463 462 462 461 461 461 458 458 457 455 455 449 444 442 438 435 429 429 427 426 424 423 421 421 421 420 419 417 417 418 418 417 417 413 413 411 405 401 396 391 387 377 377 377 375 374 370 368 368 366 364 360 358 354 352 350 344 339 335 331 329 325 320 316 316 315 316 316 316 315 315 309 309 307 305 301 295 295 295 292 292 295 294 294 294 293 294 294 293 293 296 300 305 306 307 310 313 312 315 315 318 319 320 321 321 320 321 323 324 325 327 336 342 345 348 353 360 365 366 368 374 378 379 381 380 380 384 384 385 388 389 392 395 396 399 402 405 405 406 409 407 406 406 407 408 410 410 413 413 413 414 420 421 419 420 420 421 420 420 420 419 417 417 416 416 412 406 404 402 399 397 392 389 387 386 386 384 383 383 382 384 386 388 387 387 387 384 384 385 385 383 382 378 380 377 377 378 379 377 379 378 378 377 377 378 378 375 375 375 374 374 371 367 369 367 365 364 360 360 359 357 357 353 353 352 348 348 347 347 347 346 346 348 348 349 351 352 355 354 354 354 353 352 350 348 346 344 340 338 336 334 332 328 329 330 332 333 334 334 335 336 336 337 337 340 336 339 343 344 347 352 358 373 379 389 400 417 452 470 490 511 534 584 609 634 654 671 707 725 742 758 775 801 814 824 832 840 860 868 873 883 891 900
888 876 871 862 855 847 826 818 812 810 810 814 827 840 892 1004 1284 1591 1668 1817 1807 1979 1998 2095 2186 2210 2264 2291 2319 2340 2361 2393 2405 2411 2415 2418 2418 2419 2420 2420 2420 2419 2414 2409 2405 2397 2390 2384 2384 2384 2392 2032 2031 2033 2044 2066 2076 1711 1720 1319 2112 2117 2121 2127 2134 2541 2549 2548 2548 2549 2554 2553 2553 2556 2556 2552 2545 2543 2541 2536 2529 2528 2526 2526 2527 2524 2522 2520 2513 2509 2504 2499 2498 2490 2483 2482 2480 2478 2478 2478 2471 2469 2467 2462 2455 2441 2437 2430 2424 2420 2404 2399 2396 2390 2388 1662 930 552 552 551 544 542 537 533 533 529 523 520 518 512 503 498 482 479 466 466 464 462 462 458 457 457 455 454 455 455 453 453 455 460 464 464 467 466 469 469 467 466 466 462 461 461 461 460 460 459 459 457 455 452 449 448 450 448 444 443 443 442 442 443 443 444 445 445 449 450 452 453 452 453 453 452 455 457 459 462 462 460 459 459 458 460 459 459 458 458 457 457 457 456 455 453 453 451 444 442 438 434 431 426 424 424 422 422 419 419 419 418 419 417 417 416 416 416 415 411 411 409 407 399 394 389 387 377 377 376 373 372 370 368 367 364 362 358 356 352 352 349 344 338 335 331 329 325 318 316 315 315 314 314 315 315 314 309 307 306 304 302 296 296 296 295 295 298 299 298 298 298 297 297 296 296 297 301 306 307 307 308 311 312 311 311 314 317 318 319 319 318 321 322 324 327 328 337 343 345 348 352 358 363 364 366 372 376 377 379 378 378 382 384 385 388 389 392 395 396 399 402 406 404 406 409 406 407 407 407 408 409 410 413 413 412 415 418 419 419 418 418 419 419 418 418 417 415 415 414 414 410 404 401 399 395 391 387 383 383 383 382 380 380 379 380 382 383 384 385 385 385 382 382 381 381 379 378 376 378 377 379 379 379 377 378 378 377 377 377 378 377 375 375 374 374 373 371 367 369 366 364 360 360 360 356 354 353 353 352 350 348 347 347 347 346 346 347 348 348 349 351 351 353 352 352 353 351 351 349 346 344 340 340 338 336 334 331 328 329 330 332 334 332 330 331 331 329 330 331 334 336 335 336 337 342 345 354 362 369 379 390 420 440 458 478 498 543 567 592 617 642 677 695 715 732 748 782 795 808 823 833 849 860 873 882 891 908 917
889 884 877 862 855 846 836 824 811 807 807 809 812 840 888 1003 1025 1572 1650 1798 1807 1860 1989 2082 2172 2198 2228 2281 2310 2330 2351 2367 2394 2401 2408 2410 2410 2411 2412 2412 2413 2413 2407 2402 2398 2390 2383 2377 2377 2377 2385 2018 2024 2025 2037 2041 1293 561 560 560 561 562 950 951 952 1337 2145 2147 2148 2543 2542 2547 2546 2549 2551 2550 2545 2543 2542 2542 2544 2545 2544 2542 2527 2525 2521 2518 2513 2506 2504 2493 2491 2483 2476 2476 2475 2473 2473 2473 2466 2462 2460 2455 2448 2441 2430 2424 2417 2413 2404 2391 2389 2384 2382 2380 545 543 543 543 541 535 530 526 526 520 515 511 509 504 495 488 482 472 466 464 462 460 459 457 455 455 453 452 452 451 449 449 450 451 457 457 460 463 464 465 465 464 462 460 459 459 459 458 458 457 457 455 453 451 448 448 448 446 444 443 442 442 442 443 441 442 443 443 445 447 448 451 452 448 447 449 450 450 454 455 455 453 452 452 451 452 454 453 453 452 452 452 451 450 450 450 449 447 442 438 434 432 428 424 422 422 420 420 417 417 416 416 417 417 416 416 416 415 413 411 409 407 403 394 389 387 383 381 377 373 369 369 368 364 364 362 360 356 354 350 349 347 340 336 331 329 327 321 316 312 312 311 311 310 311 313 311 305 305 304 302 302 296 296 295 295 295 297 298 298 298 297 297 296 296 295 297 299 304 305 305 306 309 310 309 309 310 314 314 315 315 318 321 322 323 326 327 335 341 343 344 349 356 361 362 364 368 372 375 377 376 378 380 382 385 386 387 391 393 394 397 400 404 404 405 407 406 407 407 406 408 409 410 413 413 411 413 416 417 417 416 417 417 415 415 414 414 413 413 411 409 403 403 399 397 391 387 384 382 381 381 378 376 376 376 375 376 377 379 380 380 379 379 378 380 379 375 375 374 376 375 378 379 379 377 378 377 377 377 376 378 375 375 374 374 374 369 369 367 368 365 362 358 356 354 352 350 349 349 349 347 344 342 342 341 341 340 342 341 341 342 345 346 348 347 347 348 346 345 343 341 337 337 336 334 332 330 324 322 324 325 328 329 329 326 326 322 322 323 323 326 332 326 327 329 333 341 344 352 359 368 393 406 426 444 484 504 529 552 577 627 647 667 685 705 739 755 772 787 800 831 841 849 861 874 898 908 916 928
891 886 879 872 856 846 833 821 812 803 803 806 810 822 878 937 1015 1202 1553 1644 1837 1860 1856 1965 2159 2185 2212 2242 2269 2321 2341 2357 2373 2389 2397 2401 2401 2401 2403 2403 2404 2406 2406 2395 2391 2383 2376 2376 2370 2370 2378 2011 2017 2018 2029 2034 1285 916 552 551 552 554 553 943 944 1329 2130 2138 2141 2536 2535 2540 2540 2543 2544 2544 2543 2536 2536 2535 2538 2538 2541 2539 2527 2525 2523 2518 2511 2504 2502 2495 2485 2478 2472 2471 2469 2466 2466 2466 2459 2457 2453 2448 2441 2434 2427 2415 2408 2405 2396 2389 2379 2373 2371 2371 537 536 534 536 534 528 524 519 519 517 509 506 504 498 495 481 475 470 464 462 460 458 457 455 453 453 451 450 450 449 447 447 448 451 454 455 458 459 460 463 463 462 460 458 458 455 455 455 454 453 453 451 447 445 443 443 442 440 438 436 435 435 436 436 434 435 436 436 435 441 443 446 447 441 440 442 443 444 447 448 448 447 447 448 448 449 448 448 448 447 447 446 446 445 446 446 444 444 438 436 432 430 428 424 422 422 420 419 417 416 416 414 415 413 413 412 410 410 406 404 402 400 396 387 381 379 376 375 373 369 367 366 366 364 363 361 359 356 353 349 347 345 340 334 329 323 323 319 314 310 310 309 308 308 309 311 309 303 302 302 300 300 297 297 297 296 294 297 298 298 297 297 296 296 295 295 296 299 304 305 304 306 307 308 309 309 310 314 314 315 315 318 320 322 323 326 327 336 341 344 345 350 358 361 362 363 367 370 373 373 374 379 380 381 384 387 390 391 392 394 398 401 404 405 407 406 407 407 406 406 407 408 410 413 412 410 411 414 417 417 416 415 415 413 413 412 412 408 408 407 405 401 399 395 393 391 385 383 380 379 379 376 374 374 372 372 373 376 377 376 376 377 377 376 378 375 375 374 374 375 376 378 379 379 378 379 379 378 378 378 379 377 376 376 374 373 369 367 365 366 361 360 356 354 352 347 346 346 345 345 341 341 339 338 338 337 337 338 338 337 342 341 341 342 342 345 344 344 343 341 337 335 333 333 331 327 325 324 320 320 323 324 325 323 321 320 317 316 318 317 320 325 326 320 326 331 334 337 345 361 368 381 394 412 449 469 490 515 539 589 612 634 657 677 714 730 747 763 778 808 825 836 848 861 889 906 915 925 937
