858 848 836 825 810 778 761 744 728 709 676 661 646 631 621 593 585 578 568 562 557 542 538 534 532 529 523 520 516 514 512 510 509 507 507 505 506 507 507 508 511 510 510 509 509 507 511 511 510 510 510 509 510 510 510 509 508 508 508 509 510 513 511 510 510 511 511 512 512 511 507 506 506 506 505 505 504 504 503 503 503 502 502 501 499 501 502 501 501 500 498 499 499 499 498 496 496 495 493 493 494 495 496 496 496 497 498 497 495 495 495 494 494 493 493 491 490 486 486 486 485 483 481 479 477 476 473 470 468 468 467 467 460 458 456 452 450 449 447 447 447 446 445 445 445 448 449 455 458 459 460 462 461 461 460 460 459 460 460 460 458 457 457 455 454 452 452 451 452 454 453 455 461 462 461 461 464 467 466 467 467 466 467 467 470 473 473 472 475 474 474 475 475 474 474 474 473 473 472 470 470 469 469 468 468 468 467 465 461 459 457 457 455 446 440 437 435 434 430 428 425 424 421 418 418 417 415 417 416 416 415 415 415 413 413 413 412 410 405 404 399 399 393 383 381 372 368 366 362 360 358 358 354 354 351 351 351 350 350 346 344 343 340 339 330 328 325 323 320 311 308 304 299 298 288 286 279 275 273 270 270 270 269 269 268 270 271 275 276 282 284 285 288 289 290 291 294 297 304 303 309 310 313 316 316 317 317 318 321 324 330 333 332 335 337 341 347 350 352 353 357 362 361 363 364 365 365 368 369 372 376 379 382 385 386 394 399 405 410 416 425 430 429 434 435 437 438 437 437 436 438 437 438 440 441 441 435 435 434 432 433 433 432 432 432 431 427 427 425 424 422 420 415 414 411 409 400 399 397 397 396 396 395 393 395 398 397 397 396 396 395 395 394 394 394 393 393 392 392 391 391 391 390 389 389 389 388 389 389 389 388 388 387 387 386 386 384 383 383 381 382 382 383 386 386 385 385 384 384 383 385 384 384 385 385 384 384 384 383 381 380 380 380 376 372 370 369 366 362 360 356 352 350 348 344 342 341 339 339 340 343 344 346 349 353 354 356 355 357 358 357 357 360 361 374 380 393 408 425 459 481 504 527 552 602 629 652 677 697 733 750 768 785 798 812 829 837 843 846 848 837 831 818 805 790
870 857 835 821 806 791 774 739 723 704 687 671 639 624 614 602 588 573 566 560 557 550 541 537 535 532 531 522 519 517 515 513 510 508 508 508 507 508 508 509 512 512 511 510 510 508 509 510 510 510 509 509 510 509 509 509 508 508 507 509 508 508 510 510 510 509 509 508 508 507 507 505 504 502 502 501 501 500 500 499 499 499 498 498 497 498 498 499 499 498 498 498 499 498 498 496 497 495 493 492 494 495 494 495 495 496 496 495 493 493 494 494 493 493 492 492 492 486 486 485 485 483 481 479 477 476 470 466 466 466 464 462 460 457 455 452 450 449 447 447 446 446 445 445 444 447 449 455 457 459 460 461 461 460 460 459 459 460 460 459 457 457 457 454 454 453 453 453 454 455 455 454 456 458 458 457 460 462 466 467 463 463 462 465 470 473 472 472 473 472 472 473 473 472 472 472 471 471 470 468 468 467 467 465 464 464 464 463 459 459 455 455 453 445 440 436 433 432 428 426 424 424 420 419 419 419 417 418 417 417 417 415 414 414 413 412 412 410 405 404 399 398 393 389 380 375 371 369 364 360 358 357 354 353 352 352 352 350 349 344 342 341 338 337 330 326 324 322 320 311 307 304 298 298 289 285 281 279 277 275 275 274 274 274 273 272 272 275 279 284 283 284 287 289 290 291 294 297 302 301 307 308 311 314 314 315 316 318 321 323 328 331 332 335 336 341 347 350 351 353 357 361 361 362 364 363 363 366 365 368 373 375 378 381 383 390 395 400 404 411 422 425 429 432 433 436 436 435 435 435 434 433 435 436 437 437 435 434 434 430 430 429 429 428 428 428 425 425 425 424 422 418 414 414 410 408 399 399 397 397 396 395 395 393 394 394 395 396 396 396 395 394 394 394 393 393 392 392 391 391 391 390 390 389 389 389 388 389 389 388 388 387 387 387 386 386 386 383 383 381 382 382 384 384 385 385 385 384 384 383 385 384 385 385 384 384 384 383 383 381 380 380 379 375 368 368 368 364 361 359 356 352 346 346 344 342 341 339 338 340 343 344 345 348 349 351 352 350 353 352 352 352 355 362 370 377 390 403 434 453 472 496 519 569 594 620 644 669 707 725 742 760 776 808 823 829 837 843 853 853 845 845 835 829 807
867 853 843 818 801 786 769 752 717 699 682 665 650 620 608 597 588 579 565 560 556 551 546 540 538 534 534 529 521 519 517 515 515 511 511 509 508 508 512 512 513 513 512 512 511 509 511 512 511 511 510 510 510 511 510 510 510 509 508 510 509 509 512 510 509 509 508 508 506 505 505 505 501 498 498 497 497 497 496 496 495 495 495 495 495 496 498 501 498 498 498 497 497 498 497 495 497 495 492 492 493 493 492 495 495 496 496 495 495 494 495 495 495 494 494 493 493 491 487 487 486 484 484 478 476 476 470 468 466 464 462 461 459 457 455 451 449 449 446 446 446 445 445 444 446 449 448 454 459 458 460 463 462 461 461 461 460 462 461 461 459 458 458 455 455 455 454 454 453 455 456 455 455 458 457 457 458 460 462 463 463 457 457 461 466 467 467 468 469 469 468 470 469 469 468 468 467 467 467 466 466 465 465 463 461 460 460 459 457 457 455 453 451 449 440 434 432 432 432 428 427 425 421 421 420 420 418 418 417 417 416 414 414 413 413 410 410 408 403 402 397 396 391 387 380 374 371 369 363 359 357 357 353 353 352 352 351 349 349 343 341 341 337 337 329 326 324 322 320 311 307 303 300 299 290 288 284 282 280 280 279 279 278 278 277 277 275 280 279 283 283 284 287 288 289 291 294 297 299 300 305 306 308 312 313 313 314 317 320 326 329 332 333 336 339 342 348 351 353 354 358 361 361 362 363 363 362 362 363 365 369 372 375 376 377 385 390 396 401 407 418 423 427 432 425 429 429 428 428 428 427 428 428 429 431 430 428 427 427 425 426 426 425 425 425 422 422 421 421 421 417 415 411 411 407 401 399 397 397 396 396 395 395 393 394 397 395 394 394 394 395 394 394 394 393 393 392 392 391 391 390 390 389 389 389 388 388 389 389 388 388 387 387 386 386 386 383 381 381 379 380 379 379 379 380 380 379 379 378 378 378 377 378 378 377 377 376 376 376 375 375 374 374 372 365 364 362 362 360 356 354 348 346 344 342 341 339 339 338 340 343 344 343 345 344 344 343 344 346 345 345 346 352 359 367 373 386 409 426 444 464 487 536 560 585 612 635 680 699 717 733 752 783 800 816 826 834 847 853 856 854 854 848 841 834
866 853 843 829 816 784 767 750 732 715 680 665 650 635 620 594 586 579 572 563 554 551 544 542 541 537 535 530 528 523 520 518 518 516 514 510 510 508 512 512 513 512 512 512 511 509 510 511 511 511 510 510 509 511 510 509 509 509 508 509 509 509 511 509 509 507 506 506 504 503 501 501 501 498 496 495 495 495 494 494 493 493 492 492 495 494 496 497 495 496 495 495 496 498 497 495 496 494 494 492 493 492 492 493 494 496 495 495 494 494 495 495 494 494 493 493 493 491 487 486 486 484 483 480 476 474 470 468 466 463 461 461 457 457 454 451 449 448 448 446 445 445 445 444 445 448 448 452 454 456 459 462 463 463 462 462 462 463 463 462 460 458 457 457 455 453 452 452 452 453 454 453 453 453 454 453 455 454 456 458 458 452 452 455 461 462 462 463 464 463 463 464 464 464 463 463 462 462 461 461 460 460 460 459 455 455 455 454 452 451 449 447 445 442 436 431 429 428 428 426 425 423 419 419 418 418 416 416 415 415 414 412 412 411 411 410 408 406 402 402 396 396 390 387 379 374 370 367 363 359 357 357 353 352 352 351 351 349 349 343 341 340 337 336 329 325 323 321 319 310 306 303 299 299 290 288 284 282 280 279 279 278 278 278 277 277 275 279 279 283 284 284 287 288 289 290 293 296 299 300 305 306 307 310 311 313 314 319 321 324 327 330 331 334 339 342 348 351 352 357 358 359 359 360 361 361 360 360 360 362 365 368 370 371 377 380 383 389 394 403 409 416 420 423 426 422 423 423 423 422 422 423 423 424 425 425 424 424 424 421 422 422 422 421 421 419 418 418 418 417 415 411 407 407 403 399 397 397 396 396 395 395 395 393 394 395 393 393 392 392 394 394 394 393 393 392 392 392 391 391 390 390 389 389 389 388 387 387 387 386 386 385 385 385 384 382 381 379 379 377 378 378 377 377 377 376 375 375 373 373 372 372 371 371 371 370 370 369 369 368 368 367 367 365 361 359 358 358 356 354 348 346 344 342 340 339 339 338 338 339 339 338 338 338 337 337 336 338 339 339 340 344 347 354 362 368 389 403 419 437 457 502 527 552 577 604 652 672 690 709 725 760 776 793 810 823 839 847 855 862 863 867 867 865 861
871 849 838 824 812 796 760 744 725 710 692 662 646 631 616 603 584 577 570 563 557 550 545 544 542 540 536 533 531 525 525 521 522 520 518 516 514 512 513 511 513 515 515 514 514 514 511 513 512 512 510 509 509 510 510 509 509 508 508 508 509 508 511 509 509 507 504 504 502 502 501 499 498 498 492 490 490 489 489 489 488 488 487 487 488 491 490 490 488 491 493 493 496 497 497 495 496 494 493 491 492 492 492 493 494 495 495 494 496 495 495 494 494 494 493 493 492 490 486 486 485 483 483 479 476 473 470 468 465 465 461 460 457 456 454 450 448 448 448 446 445 445 444 444 443 448 447 454 453 453 457 458 460 459 459 458 458 459 459 459 458 456 455 455 453 451 452 450 450 449 452 451 451 451 452 451 451 451 452 453 452 452 450 453 459 462 461 461 462 461 461 462 462 462 461 461 460 458 458 459 458 458 458 457 455 453 453 452 450 448 444 442 440 440 432 429 427 426 426 424 423 421 417 417 416 416 416 414 413 413 412 410 410 409 409 408 408 406 402 401 396 396 390 386 379 374 370 366 363 359 357 356 352 352 351 351 349 347 347 341 339 338 335 334 327 322 321 319 319 310 306 302 299 297 291 286 284 283 281 282 282 281 281 281 280 280 277 279 278 284 284 285 288 289 288 290 293 296 299 300 304 306 307 310 313 314 315 320 323 325 328 331 333 336 340 343 349 352 354 358 359 359 359 360 359 359 358 358 358 360 363 366 368 369 372 376 379 382 387 396 403 409 414 417 421 415 417 418 418 417 416 418 417 419 420 421 419 420 420 419 419 419 418 418 419 417 416 416 416 413 411 409 407 407 401 397 395 393 393 391 390 390 389 389 390 391 391 391 390 391 393 392 392 392 391 390 390 390 391 390 390 389 389 389 388 388 387 387 387 386 386 385 385 384 384 382 381 379 379 377 376 376 375 375 374 374 374 373 371 371 370 370 369 369 367 366 366 366 365 365 364 364 363 361 357 357 355 355 353 348 346 344 342 342 336 336 335 335 335 336 337 337 334 332 330 330 328 329 330 332 336 339 342 348 355 373 383 396 412 430 472 494 517 542 567 617 642 664 682 700 735 752 768 785 801 830 839 848 856 865 875 881 884 887 889
873 861 848 821 809 792 774 759 723 708 690 670 655 624 609 599 590 583 570 563 555 553 550 546 544 542 540 536 534 528 528 526 527 525 523 521 519 515 515 514 515 518 518 517 515 515 513 514 513 511 511 511 508 510 509 509 509 508 508 507 508 508 509 507 507 505 503 500 498 498 498 495 495 494 492 490 490 487 487 487 486 485 485 485 486 487 487 488 486 489 492 491 494 497 497 496 495 495 495 494 494 495 495 494 496 495 496 496 495 495 495 494 494 493 493 493 492 490 486 486 485 483 483 479 475 475 471 467 465 465 462 460 456 456 454 454 448 448 447 445 445 444 444 443 445 444 447 453 453 453 457 458 459 459 459 458 458 459 459 458 457 455 455 453 451 449 450 448 448 447 450 449 449 449 450 449 449 449 450 450 449 448 450 452 454 458 458 459 460 460 459 459 458 458 458 457 457 455 454 456 455 454 454 454 453 451 449 449 448 446 442 438 438 436 432 428 426 426 426 424 423 421 417 417 416 416 415 413 413 411 410 408 408 407 407 406 406 402 400 399 394 394 388 384 377 373 370 366 362 358 356 356 352 352 351 351 349 347 346 341 338 338 334 334 327 321 319 317 315 308 304 299 298 295 289 285 285 284 282 283 285 284 284 284 285 284 282 283 283 286 285 285 286 287 286 288 291 294 298 299 304 305 307 310 312 315 317 321 324 327 328 331 332 335 341 344 351 354 355 359 359 357 357 356 357 355 355 354 354 355 358 361 362 364 366 371 376 379 383 393 399 405 410 413 416 415 411 413 412 412 411 413 412 414 413 414 414 415 415 414 414 413 415 414 415 413 413 413 412 410 409 409 407 407 401 397 395 393 391 389 388 388 388 387 388 390 389 389 388 389 391 390 390 390 389 389 390 390 389 388 388 389 389 389 388 388 387 385 385 384 384 383 383 383 382 382 381 379 377 375 374 372 372 372 371 371 370 370 369 369 368 368 368 367 367 366 364 364 363 363 362 362 360 358 352 352 350 349 347 343 341 339 337 337 336 330 330 330 329 330 332 331 329 327 323 323 321 320 323 326 329 332 335 342 354 366 376 387 404 442 462 484 504 529 579 604 629 654 674 710 729 745 762 778 812 827 840 848 856 879 884 892 900 905 916
873 863 849 837 809 792 773 758 742 708 690 668 653 637 607 597 588 581 575 561 555 551 548 544 542 541 541 539 537 530 529 527 529 528 526 522 522 521 519 517 517 520 519 520 518 518 516 517 515 513 512 512 512 509 509 509 508 508 507 507 508 508 507 507 506 504 502 500 498 496 495 495 495 492 492 490 489 487 487 486 484 484 483 483 484 484 485 486 484 487 490 489 492 495 495 496 494 495 494 494 494 495 494 496 497 496 498 497 498 496 494 494 493 493 493 492 492 489 486 485 485 485 482 479 475 475 474 469 467 464 462 460 456 456 454 453 448 447 447 445 445 444 443 443 444 444 447 453 453 452 453 458 457 457 457 458 457 459 458 458 456 455 455 453 451 450 450 448 447 447 448 449 449 448 450 449 449 448 450 449 449 448 449 452 448 453 454 455 455 455 454 453 453 453 452 452 451 449 449 449 448 447 447 447 446 444 442 442 441 441 437 433 431 429 427 425 423 422 422 420 419 417 413 413 413 412 412 410 409 407 407 405 404 404 403 403 402 402 396 396 392 392 388 384 379 371 368 366 362 358 356 355 352 351 351 350 347 345 344 337 335 334 332 330 323 318 316 312 308 302 299 293 293 291 285 281 281 281 280 281 283 282 284 283 284 285 283 285 284 285 285 285 287 287 286 286 290 293 298 299 302 303 305 308 312 313 316 319 326 328 330 333 334 337 341 344 350 353 355 357 357 355 355 354 352 350 349 349 349 350 354 356 357 360 363 367 370 373 383 387 392 398 405 409 410 410 406 407 407 406 406 407 407 408 408 409 409 410 409 409 408 408 409 410 410 410 409 409 408 406 406 406 403 401 399 397 395 393 389 388 388 388 387 387 386 386 386 385 386 388 389 389 388 387 387 387 388 388 387 387 388 387 387 385 384 384 384 382 381 381 380 380 379 379 378 378 378 376 372 371 371 369 368 368 367 367 367 365 364 364 363 363 362 362 361 359 357 357 356 356 355 353 351 344 344 343 341 341 338 338 336 334 332 331 331 327 327 326 326 325 325 324 321 317 315 314 312 315 316 317 320 324 335 341 348 357 367 395 413 432 452 470 520 545 569 594 619 666 684 702 720 737 770 787 803 818 835 856 866 879 893 901 919 929 933
881 859 847 836 820 805 770 755 738 720 704 666 647 634 619 604 585 578 571 566 553 551 547 544 543 541 541 539 538 536 532 530 530 528 526 522 521 521 521 522 516 518 517 517 518 516 514 515 513 513 510 510 511 509 509 508 508 507 507 506 508 507 507 508 506 504 502 500 499 495 495 495 493 492 490 490 487 485 485 484 482 482 481 481 482 482 483 483 482 485 489 489 489 495 494 495 493 495 494 494 493 495 494 495 496 496 496 497 498 496 496 495 495 494 494 493 493 493 485 485 485 484 482 478 475 474 474 468 466 464 463 461 457 455 453 453 449 447 447 445 444 444 443 443 444 444 447 453 452 452 453 453 455 455 455 456 456 457 456 456 454 453 451 451 450 450 449 447 447 447 448 449 448 448 449 449 448 448 448 447 449 446 446 447 446 451 452 453 453 453 452 452 451 451 450 450 449 447 447 447 446 446 445 445 444 444 440 440 436 436 435 431 429 425 423 421 421 420 420 418 417 415 412 411 411 410 408 406 406 404 403 401 401 400 400 399 399 398 391 391 388 388 384 384 378 371 367 365 362 360 356 354 351 351 351 350 346 344 344 335 333 331 329 328 318 312 310 308 304 299 295 290 289 287 285 283 282 282 282 283 286 285 288 288 287 288 286 288 286 285 285 284 287 288 287 287 290 293 296 297 300 301 306 309 313 315 316 319 325 328 329 332 334 338 341 344 349 350 352 355 353 353 353 350 348 346 346 346 345 346 349 350 353 356 359 362 365 370 377 382 389 395 401 406 405 405 406 404 403 403 403 404 404 404 406 407 407 408 407 407 408 408 409 409 408 408 408 407 406 404 404 404 402 399 397 395 393 389 387 387 386 386 384 385 385 384 384 385 384 386 385 385 384 384 384 383 385 386 385 385 386 384 385 383 383 382 382 379 379 379 378 378 377 377 377 376 376 372 370 368 367 364 363 361 360 360 360 359 359 358 358 356 355 355 355 354 352 350 349 349 349 348 344 339 337 336 334 334 333 333 329 329 328 328 327 320 320 319 319 318 318 318 312 308 306 306 303 305 308 309 314 321 328 334 341 350 372 385 403 422 442 483 507 532 557 582 632 656 677 696 714 747 764 780 797 812 845 857 867 880 895 920 929 941 947
883 869 861 835 820 803 785 751 736 718 703 684 645 630 615 602 591 576 569 564 557 553 547 543 543 541 541 538 538 536 534 531 531 529 527 527 523 524 522 522 518 519 518 516 516 517 513 513 511 511 509 508 509 507 509 508 507 507 507 506 507 507 507 508 506 503 501 499 499 497 495 494 492 492 490 488 487 485 484 484 482 481 481 481 480 481 483 482 483 484 489 489 488 491 494 493 493 494 494 493 493 494 494 494 496 496 495 497 496 497 497 497 496 496 495 495 494 494 490 486 486 486 484 480 476 476 475 472 467 465 465 463 461 455 453 453 449 447 446 444 444 444 443 442 444 443 446 446 452 452 451 451 453 453 453 454 454 453 453 452 452 451 449 449 448 448 446 444 443 443 444 447 446 446 446 445 445 444 444 445 447 446 445 445 446 451 450 451 449 449 449 448 448 447 447 446 446 444 443 443 443 442 442 441 441 440 438 436 432 432 432 431 427 424 422 419 419 418 418 416 416 413 410 409 409 408 406 404 402 402 398 396 395 395 395 394 393 393 391 387 385 384 382 380 377 372 367 365 361 359 355 353 351 351 350 350 346 344 344 340 333 330 328 326 317 310 308 306 299 297 293 288 287 287 284 282 282 282 281 282 285 287 290 289 290 290 288 291 289 288 288 287 289 290 289 288 288 291 294 297 300 301 306 309 313 314 316 319 326 328 329 334 335 338 341 344 348 350 352 354 352 350 349 347 345 343 341 340 340 341 344 345 348 351 352 355 358 363 372 377 383 390 394 399 398 400 404 397 396 396 396 397 398 398 399 400 400 403 402 404 405 404 405 405 405 406 406 405 405 403 402 402 400 397 395 395 393 389 387 385 383 382 380 380 379 381 380 381 381 381 380 380 379 379 378 378 381 382 383 383 383 380 381 381 381 380 378 378 377 377 377 376 376 375 375 374 372 370 368 366 366 361 361 357 357 357 354 354 354 353 353 350 348 348 348 347 347 345 342 342 340 339 336 330 328 328 325 325 325 324 324 321 321 321 320 320 311 310 310 310 309 305 303 299 297 295 295 296 297 299 308 313 319 326 332 352 363 376 391 411 448 470 493 518 543 595 620 646 667 686 724 741 759 776 792 824 841 856 867 880 909 924 935 947 958
881 868 859 846 818 802 783 765 750 716 701 682 662 642 610 598 588 581 570 565 558 554 551 546 544 542 542 541 539 537 535 535 534 532 530 530 526 526 523 523 519 519 520 518 517 517 518 514 512 512 510 510 511 510 511 511 511 510 510 509 509 510 508 508 505 505 501 499 499 497 495 494 492 492 490 489 487 484 484 484 483 481 481 480 480 481 482 482 483 483 490 490 490 493 494 495 494 496 495 495 494 496 495 495 496 497 497 498 498 499 498 498 498 497 497 496 496 495 492 488 487 487 485 485 477 477 477 475 471 467 465 462 460 457 453 452 449 447 446 444 444 443 443 442 443 443 446 446 452 451 451 451 452 453 452 454 453 453 452 452 452 451 451 448 448 448 446 445 443 443 444 445 444 444 444 443 443 442 442 443 443 443 444 445 446 444 443 443 441 440 440 441 441 440 440 440 439 437 436 436 436 435 435 434 434 434 433 429 427 427 426 426 425 422 420 418 417 416 416 414 414 411 408 407 405 405 404 400 398 396 394 392 392 391 391 390 390 389 387 383 381 381 379 377 373 372 367 365 361 359 353 351 349 349 349 348 344 340 340 336 332 328 325 321 314 307 305 299 292 290 286 282 282 282 281 280 280 280 279 280 283 285 288 289 290 291 289 292 290 289 289 289 290 288 287 287 286 289 292 295 299 301 304 310 311 314 315 318 326 327 329 333 335 336 339 342 346 348 349 350 348 346 346 341 339 337 335 333 333 334 337 338 341 342 345 348 351 361 365 372 378 383 390 392 391 394 397 390 390 389 389 390 389 391 392 392 391 396 399 398 400 401 400 402 401 403 402 402 401 401 400 400 398 396 394 393 389 387 385 381 379 379 377 374 376 375 376 376 376 375 375 374 374 374 373 373 377 379 380 380 379 377 378 379 379 379 378 378 377 377 377 376 375 375 375 374 372 370 364 364 360 360 358 354 354 351 347 347 347 346 344 344 341 341 341 340 340 336 334 334 331 331 327 322 320 317 317 316 316 316 315 313 313 312 312 311 306 305 305 305 304 298 295 291 288 286 286 287 289 296 299 304 311 317 333 343 355 368 383 421 440 460 483 507 555 582 607 632 657 698 716 733 754 771 803 819 836 853 868 896 909 926 937 949 974
888 866 856 842 830 798 780 760 744 728 696 677 658 638 623 594 586 579 575 570 559 556 552 548 546 542 542 541 539 535 535 534 534 534 530 529 526 525 525 523 519 519 520 519 517 517 518 518 512 512 510 509 509 508 509 509 509 508 509 509 509 510 508 507 505 505 503 501 498 496 494 494 492 491 489 487 487 483 482 482 481 479 479 478 478 479 479 480 481 481 485 490 489 492 494 493 493 494 493 493 493 494 493 493 494 496 495 494 494 497 497 496 496 495 495 494 494 493 490 488 487 487 485 484 481 477 476 474 471 469 464 464 463 460 456 454 450 448 448 445 445 445 443 442 443 443 446 445 452 451 451 450 452 453 452 453 451 451 451 448 448 448 446 445 444 444 444 443 441 442 442 442 441 442 442 441 441 441 440 440 441 441 440 441 443 440 442 439 439 437 436 436 435 435 435 434 434 435 435 434 434 433 431 431 430 430 430 426 424 423 423 422 418 418 418 416 415 415 414 412 412 409 406 405 403 403 401 397 395 393 391 388 388 388 387 387 386 384 384 378 376 375 373 373 371 370 367 365 361 359 353 351 349 349 348 344 342 338 338 336 329 327 323 319 314 305 298 295 288 286 284 282 280 280 279 278 278 278 277 278 281 283 286 287 290 291 289 288 288 287 287 287 288 287 287 286 286 289 292 295 298 299 302 310 311 314 315 318 326 327 329 333 335 336 337 342 345 346 345 345 343 341 340 336 334 332 330 326 326 327 330 331 336 337 338 343 346 355 360 365 371 376 384 385 385 388 391 385 384 384 384 385 384 384 387 387 387 391 394 393 395 397 397 396 396 397 397 396 396 396 395 395 394 392 392 390 387 384 382 381 379 378 376 373 372 374 375 373 372 372 371 371 370 370 371 372 372 375 376 374 377 377 376 378 377 377 376 376 375 375 374 374 374 373 371 371 369 368 364 364 360 358 358 354 350 349 346 345 345 344 342 340 340 339 337 337 336 334 332 326 326 326 320 316 312 310 310 310 309 308 310 308 307 307 306 306 300 300 300 299 297 293 289 280 280 278 277 279 281 288 291 296 302 315 325 335 346 359 393 413 431 451 475 520 547 574 599 624 669 691 711 728 750 785 800 816 833 850 880 895 910 926 951 966 976
890 878 857 844 830 813 796 756 739 722 706 689 650 631 616 603 582 575 572 568 566 555 552 549 547 544 541 541 539 538 535 534 534 533 531 529 525 523 523 521 519 518 518 517 515 515 516 516 512 510 508 507 509 508 507 507 507 508 509 509 508 510 508 507 505 504 502 500 498 496 494 494 493 491 489 487 487 486 482 481 481 479 479 478 478 479 479 480 481 480 485 488 489 492 493 493 493 494 493 493 492 492 493 493 494 494 495 493 492 493 493 493 492 492 491 491 490 490 490 489 489 488 486 486 484 480 479 477 475 473 470 469 467 466 461 457 455 451 449 449 446 446 444 444 443 444 447 445 450 449 449 445 446 448 447 446 444 442 442 441 439 439 439 438 438 439 438 438 438 439 438 440 439 439 438 438 438 437 438 438 439 439 438 439 439 438 440 438 437 435 435 434 434 435 434 434 434 435 434 434 434 433 431 430 430 428 428 424 423 423 423 421 416 414 414 414 413 411 411 410 410 408 404 403 401 401 397 393 391 391 387 383 383 382 382 382 381 379 379 373 373 370 368 368 366 365 363 361 359 359 353 349 347 347 346 344 342 336 336 334 327 323 319 315 308 304 297 294 285 281 280 280 278 278 275 275 274 274 274 276 279 282 285 287 288 289 287 287 286 285 285 286 288 288 288 286 286 289 291 293 296 299 302 309 311 314 315 318 326 327 328 333 334 335 335 338 341 342 343 343 341 339 336 334 332 330 328 324 324 323 326 328 332 333 335 339 342 352 358 363 368 374 378 380 379 381 383 381 381 380 380 381 381 380 383 383 384 387 390 391 394 397 397 396 396 397 397 396 396 396 395 395 394 392 392 389 387 384 382 381 379 378 375 371 371 372 371 371 370 370 369 369 370 370 371 371 370 373 375 374 375 373 374 374 375 375 374 374 374 373 373 372 372 372 371 370 368 368 364 364 360 356 356 352 348 348 344 343 343 341 339 335 335 334 332 330 328 327 327 323 319 319 317 307 307 305 305 304 302 302 303 303 302 301 301 301 295 295 294 294 293 291 282 277 276 274 274 277 278 281 284 287 300 308 318 328 338 366 384 404 423 443 490 512 537 564 589 639 661 684 706 746 763 780 795 812 845 862 878 893 910 938 952 967 977
890 878 868 857 827 810 793 771 734 717 699 684 663 626 611 597 587 579 570 568 564 559 553 547 545 545 545 541 539 538 534 534 533 533 531 529 529 523 523 521 520 518 518 517 515 515 516 515 513 513 514 512 513 513 513 512 511 513 514 514 513 513 511 509 508 507 505 503 501 501 497 497 496 493 492 488 488 487 485 483 482 480 480 480 479 480 480 481 481 482 485 488 487 492 493 493 492 492 495 494 494 493 495 494 495 495 496 494 494 495 495 494 493 493 493 492 492 491 491 491 490 490 487 487 485 485 483 480 478 476 474 472 470 469 467 465 461 457 454 453 451 449 449 448 448 449 449 448 449 447 448 445 446 447 447 446 444 442 442 441 439 437 437 436 436 437 437 436 436 437 436 438 437 437 436 436 437 437 437 436 437 437 436 438 437 435 436 436 435 433 433 434 434 435 433 432 432 430 429 427 427 426 426 425 425 423 422 420 420 419 419 417 415 413 412 412 411 409 409 407 406 406 404 403 401 399 397 388 388 386 382 378 377 377 377 376 376 374 373 371 371 368 366 366 364 363 361 359 357 355 349 345 342 341 341 340 338 336 334 332 326 321 317 314 306 301 295 292 283 279 277 276 274 272 271 271 271 270 270 274 277 280 283 283 284 285 285 285 286 287 286 288 289 288 288 286 285 288 291 292 295 297 301 309 310 313 315 318 325 327 328 333 334 333 335 334 337 340 340 339 337 337 331 329 327 325 323 319 319 318 319 321 325 326 328 333 340 347 353 358 362 374 375 378 378 379 380 374 374 374 373 376 376 375 377 376 377 382 385 386 392 392 393 393 393 394 393 393 392 392 391 391 391 390 388 388 384 382 380 379 377 377 371 369 368 370 369 369 369 368 368 367 369 368 368 367 367 368 371 370 372 370 371 372 372 371 371 371 370 370 369 369 368 368 367 367 365 365 359 358 355 353 352 345 344 341 339 338 334 334 333 331 331 329 325 323 322 322 321 318 314 314 308 304 302 300 300 299 297 296 298 297 297 296 296 296 295 294 294 292 292 286 280 275 275 272 273 275 276 278 281 290 297 303 313 323 344 357 376 396 414 458 481 501 527 554 604 629 653 676 718 740 757 773 788 822 839 855 874 889 922 935 951 966 977
888 876 866 856 842 808 791 770 749 732 697 682 663 643 611 597 587 578 573 566 562 557 555 547 542 541 541 539 537 535 534 534 533 531 529 529 528 525 522 520 520 518 518 517 515 514 514 515 513 513 514 512 511 511 511 514 513 514 515 515 518 519 517 515 515 514 512 510 508 507 505 503 503 497 495 493 489 487 485 485 482 480 480 479 479 480 480 481 481 482 485 486 487 487 493 492 492 492 493 494 494 493 495 494 493 495 494 494 494 495 494 494 494 493 492 492 492 491 491 490 490 490 489 487 485 485 484 483 481 481 479 475 469 469 467 465 463 457 454 453 451 449 448 448 448 449 448 448 448 446 445 443 444 444 443 443 441 439 437 436 436 432 431 431 431 430 431 431 431 430 431 433 432 432 433 432 434 433 433 432 434 433 433 434 432 431 433 431 430 429 429 430 430 430 426 425 425 423 422 420 420 419 419 418 418 418 417 415 414 414 414 412 411 411 410 410 406 404 403 401 401 401 400 400 396 392 392 384 384 382 378 378 376 375 375 373 372 372 371 366 365 363 361 361 359 358 356 354 353 353 351 344 342 341 341 338 336 334 334 332 323 317 310 307 305 294 287 283 279 277 271 269 267 267 266 266 265 265 265 269 272 275 276 279 280 282 285 284 286 287 286 288 289 288 288 287 287 288 291 292 295 296 301 307 310 313 315 318 325 327 328 331 332 332 333 333 336 337 336 336 334 333 326 324 322 320 318 314 313 313 314 317 318 320 321 324 332 338 346 349 356 365 368 373 372 374 373 371 370 370 371 371 370 370 371 371 372 377 380 381 385 385 386 386 387 388 388 388 387 387 386 386 386 385 384 384 382 380 380 376 375 373 371 369 368 368 368 367 367 366 366 366 365 364 364 364 363 365 367 369 370 366 368 367 368 366 366 365 363 363 362 362 362 361 361 360 360 354 352 352 346 346 343 340 338 337 335 333 331 330 330 328 327 327 325 323 319 318 318 316 312 308 304 302 302 300 299 299 297 296 298 297 297 296 296 292 291 291 291 290 288 284 279 273 271 270 272 273 274 274 278 285 291 298 308 327 337 351 367 387 426 449 473 493 545 571 597 623 646 693 713 735 752 769 802 819 836 854 871 903 919 933 948 964 986
897 886 863 852 839 822 786 764 744 727 710 675 658 639 623 609 585 576 569 564 558 553 551 544 540 538 537 535 533 533 532 532 532 530 529 528 528 524 522 520 520 518 517 517 515 516 514 515 515 512 514 512 513 512 512 512 513 513 513 513 516 519 519 516 516 514 514 510 508 507 505 503 502 497 495 491 491 488 488 486 486 482 481 481 481 480 479 481 480 482 481 486 487 487 490 492 492 491 493 494 493 493 494 494 494 495 494 492 493 493 492 492 492 491 491 490 490 490 489 488 488 488 487 485 485 484 484 484 481 481 479 478 475 472 468 466 464 462 457 455 451 451 450 449 447 449 447 448 447 445 445 446 444 444 443 441 439 437 436 434 434 430 430 429 429 428 428 427 427 427 428 429 429 428 430 429 428 428 428 427 430 430 429 431 430 428 429 429 428 426 426 425 425 424 424 423 421 421 421 420 420 419 417 416 416 416 415 413 413 412 412 410 410 407 405 405 404 402 402 400 399 397 396 394 392 390 387 383 379 375 373 373 370 370 370 368 367 366 366 362 362 359 357 357 355 355 352 350 350 349 349 340 340 339 339 337 334 332 332 330 321 317 310 305 301 290 283 278 276 272 266 266 264 263 263 262 262 261 263 267 270 273 274 277 280 281 284 284 287 286 286 287 289 289 289 289 288 288 291 292 295 296 301 305 308 311 313 325 325 326 328 331 332 331 333 332 335 335 334 334 332 330 322 320 318 315 310 308 308 308 309 312 313 314 317 320 330 338 343 347 354 358 363 368 367 370 370 367 367 367 366 366 365 365 366 367 369 373 375 376 382 383 383 384 387 387 386 388 387 387 386 386 386 385 384 384 384 378 378 377 375 373 371 369 368 368 368 367 367 364 364 364 362 361 361 362 362 363 364 365 367 366 369 367 368 366 366 363 363 363 362 362 360 359 357 357 355 351 347 347 344 342 340 338 336 334 326 326 326 325 325 322 322 318 318 318 315 313 313 309 305 303 301 297 298 298 296 295 293 293 296 295 293 293 292 292 291 291 291 288 286 282 277 271 271 269 270 271 273 274 277 283 290 296 316 326 334 347 359 397 418 441 465 510 539 564 591 616 663 687 707 729 747 781 798 813 829 848 880 896 913 926 958 970 985
897 886 875 851 834 817 800 781 739 721 705 688 671 636 621 607 595 576 569 564 558 555 547 542 538 536 535 533 531 529 529 528 528 528 527 527 528 524 522 522 519 517 517 517 516 516 515 517 515 514 515 513 514 514 513 513 513 512 512 515 518 519 518 518 516 514 513 511 507 507 505 503 503 498 496 493 492 492 488 486 485 485 483 482 482 482 481 482 483 483 484 486 485 486 489 491 492 491 493 494 493 493 494 494 493 495 496 494 495 495 494 493 493 493 492 492 491 491 491 490 490 489 489 487 484 484 484 483 483 481 479 478 474 474 470 468 466 464 460 459 454 454 453 451 449 450 448 450 447 445 445 444 442 442 441 439 439 433 433 432 430 430 428 427 427 427 426 425 425 425 424 425 425 425 426 426 425 425 424 424 426 426 426 425 425 422 424 423 423 423 422 422 420 419 421 422 418 417 417 416 414 414 414 413 413 412 412 410 409 409 408 406 406 402 400 399 399 399 398 394 392 390 388 388 387 387 383 377 374 373 370 369 365 365 364 364 364 363 356 355 355 354 352 352 350 349 347 345 343 343 342 336 334 334 334 333 331 329 328 328 319 315 310 304 297 288 281 274 270 267 261 260 260 260 259 259 258 258 259 263 266 270 273 277 280 281 284 284 287 288 287 289 290 289 289 288 288 289 292 293 296 298 302 307 310 311 314 327 327 328 328 331 330 330 331 331 334 333 331 330 328 324 321 317 316 313 307 305 305 304 305 308 309 313 314 317 328 336 341 344 357 356 361 364 364 365 363 364 364 362 363 362 362 361 362 364 365 368 371 377 379 380 381 383 385 385 385 386 386 387 384 384 384 383 383 382 382 378 376 374 373 373 371 369 367 366 366 365 365 363 362 362 361 361 361 362 362 364 364 364 363 365 367 365 367 364 362 360 360 359 359 357 356 354 354 350 344 342 340 340 338 335 333 333 331 322 319 319 319 318 318 317 317 313 313 312 312 310 309 306 303 301 301 295 296 296 296 295 293 296 296 295 293 293 292 290 290 289 289 288 286 282 277 271 271 269 268 270 271 272 277 283 288 303 312 322 331 352 372 391 411 433 476 502 530 556 584 633 657 680 701 724 759 776 793 810 845 860 875 893 910 939 954 965 979
897 885 873 861 847 813 797 778 754 714 699 682 666 649 617 604 593 581 573 560 555 551 546 538 535 533 532 532 528 526 525 523 523 522 522 522 521 521 519 518 516 518 515 515 514 512 513 515 514 514 515 515 516 515 515 515 516 515 515 518 521 520 520 520 518 515 515 513 511 508 506 504 504 504 498 494 492 492 490 486 485 485 484 484 483 483 483 484 485 485 486 486 485 484 489 490 490 489 491 492 492 491 492 494 493 494 496 493 495 494 494 493 493 493 492 492 491 491 490 490 490 489 489 487 486 484 484 483 483 481 478 478 474 474 470 468 466 464 460 459 454 453 453 451 449 448 446 448 445 443 443 443 439 438 436 436 435 432 429 429 427 426 426 424 423 423 423 422 422 421 421 421 420 421 422 422 421 421 421 420 420 423 422 422 416 416 417 417 416 416 417 416 416 416 417 418 416 416 415 415 412 412 412 411 411 410 408 406 406 405 405 403 402 400 398 396 396 395 395 391 390 387 386 384 384 383 378 376 368 368 366 362 360 359 357 357 357 356 349 348 348 348 347 347 345 344 340 338 336 336 335 331 329 329 328 328 326 325 325 325 314 310 305 299 292 283 276 272 268 265 259 257 255 254 254 253 253 253 254 258 261 264 267 272 276 279 282 284 286 288 287 289 290 289 289 288 288 289 292 293 296 298 305 307 308 309 312 324 323 324 324 327 326 326 326 325 328 328 327 327 327 322 319 315 311 308 302 301 301 301 302 305 308 309 310 318 326 334 339 344 355 355 358 361 360 363 359 360 360 356 357 357 357 356 357 359 360 363 366 376 377 378 380 382 385 385 385 386 387 387 384 384 384 383 383 382 382 378 374 372 370 370 366 365 363 363 362 362 361 359 359 359 358 358 357 359 358 361 362 362 363 366 367 365 367 364 362 360 358 358 355 350 349 347 347 343 341 335 333 333 329 328 326 326 324 316 314 314 314 313 313 312 312 308 307 307 307 306 304 298 298 298 297 297 296 296 296 295 293 294 295 295 293 292 292 290 290 289 289 288 286 282 271 271 271 269 268 271 271 272 277 283 294 303 311 321 339 350 367 384 404 450 470 495 524 549 603 628 652 676 696 736 753 770 787 820 839 852 869 887 917 932 947 959 973
906 883 871 856 841 824 790 770 746 726 705 673 658 641 624 597 586 576 567 562 551 548 539 537 531 529 529 528 526 522 522 520 520 518 517 516 516 516 515 515 513 514 514 513 514 512 513 513 514 514 515 516 516 515 515 515 514 515 515 516 517 520 520 519 519 517 515 513 511 508 508 504 504 503 498 494 492 491 491 491 488 488 488 487 486 486 486 485 485 486 487 487 487 486 487 490 490 489 490 492 491 491 492 493 493 494 494 493 493 492 492 492 491 491 490 490 490 489 489 488 488 487 487 486 486 484 483 483 483 481 480 478 474 474 472 468 466 463 460 459 455 453 451 449 447 446 444 446 445 441 441 441 437 437 434 434 433 430 427 427 425 425 424 420 420 419 419 419 418 418 417 417 416 418 419 419 418 417 417 417 416 417 417 417 414 414 415 415 414 414 414 415 414 414 415 416 416 415 415 413 412 412 412 411 411 410 408 406 406 405 405 403 401 400 398 396 395 395 395 391 390 387 386 384 382 381 378 376 368 368 364 360 360 354 352 352 351 346 345 345 344 344 342 341 341 341 338 336 336 334 333 331 329 329 328 328 325 325 325 324 312 310 303 299 292 283 276 272 268 264 257 255 253 252 252 251 251 251 250 251 254 257 260 267 274 277 282 283 286 287 287 288 290 289 288 288 288 289 292 293 296 297 305 307 308 309 309 320 321 323 324 327 326 326 326 325 328 328 327 327 326 324 320 317 311 307 303 303 303 302 303 306 308 309 309 318 326 334 339 344 355 354 356 359 360 359 359 360 360 356 357 357 357 356 357 359 358 361 369 374 375 376 380 382 385 385 385 386 387 387 384 384 383 383 383 382 382 378 374 372 370 370 366 365 363 363 362 362 361 359 359 358 358 358 357 357 358 361 362 360 363 364 366 364 365 361 360 357 355 354 350 345 343 341 340 338 336 332 330 327 325 325 323 323 318 315 313 312 310 310 309 309 308 304 304 304 303 305 300 298 298 296 295 297 296 298 297 295 295 294 295 295 293 294 294 292 291 289 289 288 286 277 273 273 272 270 270 271 271 272 278 288 294 303 311 327 337 349 364 381 419 443 465 490 517 573 598 624 647 689 713 730 747 763 797 815 834 847 864 898 911 928 943 955 978
904 894 882 853 837 820 802 765 739 719 699 682 649 634 619 605 593 573 564 559 553 544 539 537 535 531 528 528 526 524 522 520 519 517 517 516 516 516 515 515 512 512 512 511 512 510 512 511 513 514 515 516 517 517 516 516 516 515 515 518 519 520 519 519 519 518 516 512 510 508 508 506 504 503 496 494 495 495 491 490 490 489 489 489 488 488 487 487 488 490 489 488 488 488 487 492 491 491 491 492 490 489 491 490 491 492 492 492 491 491 490 490 490 489 489 488 488 487 487 486 486 486 485 485 484 484 484 483 482 480 480 478 474 473 471 469 465 465 460 459 459 455 453 451 449 446 443 444 442 440 437 437 433 433 431 430 430 428 426 423 423 421 421 419 416 416 416 415 415 416 415 415 415 414 414 415 415 416 415 415 415 416 415 413 413 412 414 413 412 414 413 414 414 414 415 416 416 415 415 413 412 412 411 411 411 410 408 406 406 405 405 403 400 400 396 394 394 393 393 389 388 385 384 384 380 380 374 374 366 366 362 359 358 354 350 348 346 345 343 343 343 342 342 341 341 340 340 336 336 334 333 329 329 328 328 328 325 325 325 323 312 310 303 297 292 282 275 273 268 264 255 253 251 251 250 249 249 249 248 249 252 257 260 266 274 276 282 283 286 287 287 288 289 289 288 288 288 289 292 295 296 297 305 308 308 307 307 320 321 323 324 327 326 326 326 325 326 326 325 325 325 322 319 316 311 309 305 305 304 304 305 306 309 310 310 320 328 336 341 350 355 354 356 359 360 359 359 360 360 356 356 355 355 356 356 357 357 360 367 372 373 375 381 382 385 385 385 386 387 387 384 384 383 383 383 382 378 378 374 372 370 368 366 364 361 361 360 360 360 358 357 357 356 356 355 356 356 359 361 360 361 363 364 362 361 359 357 352 349 349 348 341 339 337 335 333 329 327 323 321 319 318 316 315 312 310 309 309 306 306 306 305 303 303 302 302 302 303 299 298 298 296 297 298 298 299 299 297 296 296 297 295 294 294 294 292 291 289 289 288 284 280 278 278 278 273 273 274 274 275 287 290 294 301 317 327 337 349 364 399 418 440 462 487 541 568 595 621 666 686 708 727 744 777 794 811 829 843 876 893 907 923 948 962 970
901 890 878 865 834 817 799 780 758 711 690 675 658 629 614 598 588 578 564 558 553 544 542 535 533 531 529 528 526 524 522 520 519 517 517 516 516 515 515 515 514 512 512 511 511 510 511 511 512 512 515 516 517 517 518 517 517 517 516 519 520 522 521 521 520 520 518 516 512 510 509 507 505 503 498 495 495 494 492 492 492 491 491 490 490 489 489 490 491 491 491 490 490 489 489 490 493 492 492 492 491 489 490 490 491 492 492 492 491 490 490 490 489 489 488 488 488 487 487 486 486 486 485 484 484 484 483 483 482 480 480 478 474 473 471 469 467 465 459 459 459 453 453 451 449 448 442 444 442 440 437 437 433 433 433 428 428 426 426 425 423 421 421 419 416 416 415 415 415 416 415 415 415 412 412 411 411 414 413 413 413 414 410 408 407 407 408 408 407 409 408 410 409 410 412 413 412 412 411 413 412 412 411 411 411 410 408 406 405 405 401 399 399 398 398 394 392 391 391 389 388 385 384 384 380 379 374 374 366 366 362 358 358 352 350 348 343 342 338 338 337 337 336 336 336 335 333 329 329 328 328 324 324 323 323 324 322 321 321 319 314 304 297 294 288 279 274 271 268 264 255 253 251 250 248 248 247 247 246 246 249 253 256 263 271 272 280 283 286 287 285 288 289 289 288 288 287 290 292 295 296 296 303 306 306 306 305 316 316 317 319 325 324 326 325 325 326 326 325 325 324 322 317 315 309 310 306 306 306 305 306 308 311 312 318 321 329 337 341 350 355 354 356 359 360 359 359 360 358 356 356 355 355 356 356 357 356 361 366 370 373 375 381 382 385 385 385 386 387 387 385 384 383 383 383 382 378 378 374 372 370 366 364 364 361 361 360 360 360 358 357 357 356 356 355 357 356 359 361 362 361 363 364 362 361 359 357 352 346 345 345 340 338 332 330 329 325 323 319 317 315 315 312 312 308 306 306 305 305 304 304 303 301 301 301 300 301 301 299 298 296 297 297 298 298 299 299 297 296 296 297 297 296 296 296 293 291 291 290 288 286 284 282 281 279 277 276 276 277 284 288 291 296 311 317 327 337 349 379 396 414 436 458 511 538 565 590 639 661 682 704 722 756 773 788 805 823 852 868 885 899 931 941 954 962
908 887 875 860 845 829 794 773 750 726 682 667 650 636 621 592 581 571 564 555 551 541 539 535 531 529 527 525 522 520 518 516 516 515 515 515 514 513 513 513 512 510 510 509 509 510 510 511 512 512 513 516 517 517 518 518 517 517 516 518 520 522 521 521 520 520 518 516 514 508 508 506 504 501 496 495 495 495 495 495 495 494 494 493 493 493 492 492 493 493 492 492 491 491 490 490 493 491 490 490 491 487 487 486 486 486 487 486 486 486 485 485 484 484 484 485 484 484 483 483 482 482 482 481 482 482 482 481 479 478 478 476 476 473 471 469 467 465 459 459 459 455 453 449 447 446 441 442 442 440 438 437 433 433 432 429 428 426 426 425 423 421 420 418 416 416 414 413 413 414 413 413 413 412 412 411 409 411 412 411 411 411 407 404 404 404 405 405 406 407 406 408 407 408 410 411 411 410 410 411 411 410 410 409 409 408 406 404 404 403 399 396 395 395 394 392 390 388 388 385 385 383 382 382 378 378 372 370 366 364 362 358 358 349 347 339 336 335 333 331 331 330 329 329 329 328 326 324 324 322 321 320 320 320 319 321 318 318 318 317 312 304 297 293 288 279 273 271 268 264 255 253 250 250 248 247 247 247 246 246 247 252 253 259 267 268 277 280 284 280 285 286 287 287 286 286 286 288 290 293 294 294 301 303 302 302 308 315 314 317 319 323 324 326 325 325 326 326 325 325 324 324 318 316 313 314 310 309 309 310 310 311 312 314 320 323 331 339 342 352 355 354 356 360 361 361 361 362 360 358 356 355 355 356 356 357 357 361 366 370 373 375 381 382 385 385 386 386 387 387 385 384 384 383 383 382 378 378 374 372 368 366 364 364 362 361 360 360 360 357 357 357 356 356 355 357 356 361 362 363 363 364 364 363 361 359 357 352 346 345 340 336 332 332 330 328 324 320 318 316 313 311 311 309 307 305 304 303 303 303 302 302 300 299 299 298 300 299 299 298 298 299 299 300 300 301 300 298 298 299 302 300 300 299 297 297 296 296 295 293 291 289 287 286 284 282 282 281 284 287 292 293 305 311 318 326 336 363 379 396 415 457 481 508 533 560 611 636 658 680 701 736 753 770 785 815 828 845 862 877 908 923 933 946 950
908 896 884 857 841 826 809 765 741 718 694 674 641 627 612 598 576 567 559 553 551 539 537 533 529 525 523 523 521 521 516 514 514 514 513 513 512 512 512 511 511 510 510 509 509 510 510 511 512 512 513 514 517 517 518 518 519 518 518 519 520 521 521 521 520 520 518 516 513 510 507 505 503 500 497 495 495 494 496 495 495 494 494 494 493 493 492 492 493 492 492 492 491 491 490 490 491 491 490 490 489 487 487 485 484 484 485 485 483 482 482 481 481 480 482 483 482 482 482 481 481 480 480 480 479 480 480 479 479 478 478 476 474 473 471 469 467 465 459 459 458 455 453 449 447 446 444 444 441 439 437 437 433 433 432 429 428 426 425 425 423 421 420 418 416 415 413 413 413 411 412 411 411 411 410 410 409 409 408 408 407 405 405 402 402 402 403 403 405 407 406 408 407 408 410 411 411 410 410 411 411 410 409 409 409 408 406 404 404 403 401 395 395 393 393 390 390 388 387 387 383 381 381 380 378 376 372 370 366 364 360 356 356 347 343 338 334 334 329 327 327 327 326 326 325 325 323 320 320 318 318 317 317 316 316 317 316 316 316 315 310 302 295 292 286 277 273 271 267 264 254 252 250 250 248 247 247 246 246 245 247 248 251 258 265 267 273 276 279 278 281 284 286 285 285 284 284 288 290 291 292 292 298 299 299 300 308 315 314 317 320 325 326 327 327 328 329 329 329 328 326 325 322 320 316 317 313 313 312 313 313 316 316 317 323 328 333 341 349 353 356 356 361 364 365 365 364 363 361 359 357 357 356 356 356 357 357 361 366 370 374 378 381 382 385 385 386 386 387 387 384 384 384 383 383 382 378 378 374 370 368 366 364 364 361 361 360 360 360 357 357 357 356 356 357 362 361 363 364 365 365 364 362 363 361 359 357 346 344 344 338 333 330 330 330 326 320 318 318 316 314 311 309 309 307 306 306 305 305 305 304 303 301 301 300 300 301 301 301 300 300 301 301 302 303 303 302 302 301 303 302 300 300 299 297 297 298 297 299 297 295 294 293 293 291 289 289 291 293 294 299 305 308 313 319 328 349 364 381 398 435 457 481 508 532 584 610 635 659 677 715 731 748 765 794 809 822 839 856 884 901 916 926 942 950
903 891 879 867 836 821 801 779 757 709 686 665 650 619 605 592 581 566 559 551 548 542 533 530 526 525 520 519 519 517 517 513 512 512 512 511 510 510 510 509 509 508 508 508 509 510 510 511 511 511 513 514 515 516 518 517 519 518 519 519 522 522 523 522 522 521 521 517 515 511 509 505 503 498 497 495 495 494 496 495 495 494 494 493 493 492 492 492 491 492 492 492 491 491 490 490 489 489 488 488 486 484 484 485 484 484 483 484 482 482 482 481 481 480 480 480 481 480 482 481 481 480 480 479 479 480 478 478 477 477 476 476 474 473 471 469 467 465 465 459 458 456 454 450 450 450 447 445 443 441 439 439 435 434 434 430 430 427 427 425 423 421 420 418 416 416 413 413 413 411 412 411 411 410 408 408 407 409 408 406 404 403 403 403 400 402 403 403 405 407 406 408 407 408 410 411 411 410 409 411 410 410 409 409 409 408 408 404 404 403 401 395 395 393 393 391 388 388 387 387 383 381 379 379 378 376 372 370 366 362 358 355 354 347 338 334 330 330 326 324 324 323 323 322 322 320 318 315 315 314 314 314 313 313 314 315 315 313 312 310 305 301 295 291 286 277 273 273 269 263 254 254 250 250 247 247 247 246 246 245 247 248 251 259 262 265 271 269 275 275 276 279 280 280 279 279 279 283 284 287 287 287 295 296 296 297 305 311 312 315 319 325 324 327 327 328 329 329 329 328 326 327 323 321 321 320 317 316 316 317 316 319 321 324 328 335 338 344 350 355 360 361 363 365 367 366 366 365 363 361 359 359 358 358 357 357 358 361 366 371 374 378 381 382 385 385 386 386 387 387 384 384 384 383 383 382 378 378 374 370 368 366 364 362 361 361 361 360 358 357 357 357 356 359 361 362 363 364 364 365 365 365 362 363 361 359 352 346 344 344 338 331 329 328 328 322 320 318 318 316 313 311 309 307 307 306 306 305 305 304 304 304 301 301 300 300 301 301 300 300 300 301 301 302 303 303 302 302 305 306 306 304 303 303 301 300 301 301 300 298 296 296 297 298 296 294 292 295 295 294 300 305 308 313 320 338 348 363 378 413 434 456 481 508 559 585 608 634 656 691 708 723 740 770 786 801 816 831 863 877 893 909 926 936 944
907 886 876 862 847 813 792 770 748 723 677 657 641 624 599 588 579 571 559 548 543 537 532 526 522 522 518 516 516 514 513 513 510 510 510 508 507 507 506 506 506 505 504 504 505 507 506 507 509 510 511 512 514 513 513 514 515 517 516 517 520 520 521 520 520 520 519 519 515 513 509 509 501 498 497 495 495 494 495 495 495 494 494 493 493 493 492 492 491 493 492 491 491 491 490 490 489 489 489 488 486 484 483 485 484 484 483 483 482 482 482 481 481 480 480 479 479 478 480 479 479 479 478 478 477 479 478 477 477 477 476 476 474 473 473 469 467 465 464 459 458 456 454 454 450 449 447 445 445 441 439 439 436 434 434 430 430 427 427 425 423 422 420 418 416 416 413 413 413 410 412 409 409 409 407 406 406 407 407 403 402 402 401 401 399 400 401 401 402 405 405 406 405 406 408 409 409 408 408 409 409 408 408 407 407 407 406 402 402 401 399 392 392 389 389 385 383 383 382 382 379 376 374 373 373 372 369 366 363 359 355 351 347 345 336 331 327 327 324 322 322 321 318 315 315 313 311 310 310 308 307 307 306 306 307 307 308 307 307 305 300 295 293 291 286 277 273 273 269 263 254 254 250 250 247 247 247 246 246 245 246 248 249 255 258 261 263 264 270 270 271 274 277 276 278 277 277 280 283 286 285 287 294 294 295 297 305 311 311 315 320 323 324 327 327 328 329 329 329 328 328 327 325 325 324 324 320 320 319 320 320 325 326 330 335 340 345 351 355 362 365 366 367 367 368 368 368 367 365 365 361 360 361 361 361 359 360 363 368 371 375 378 381 382 386 385 386 386 387 385 384 384 384 383 383 382 380 380 376 372 370 368 366 362 361 361 361 360 358 358 357 357 358 364 364 364 365 364 366 365 365 364 362 364 362 359 352 346 344 344 331 329 329 329 326 322 320 318 318 314 313 311 309 307 306 306 306 305 305 304 304 304 303 303 302 302 303 302 302 302 301 304 306 305 307 306 305 310 308 310 309 307 307 306 304 304 305 304 304 304 301 303 302 305 303 301 301 304 303 303 304 305 308 311 326 336 348 363 397 415 436 456 481 532 558 583 607 649 668 687 703 719 752 766 781 793 808 840 855 869 879 904 918 928 936
906 897 873 857 842 823 803 759 737 713 691 648 633 616 604 590 571 559 555 548 541 534 530 528 524 519 515 513 512 510 510 509 509 507 506 506 506 505 504 504 504 503 503 502 504 505 505 506 507 508 508 511 512 511 511 512 513 515 514 516 518 518 518 517 517 520 519 519 517 513 507 507 502 496 495 493 493 493 494 493 493 493 492 492 491 491 490 490 489 491 490 490 489 489 489 488 488 487 487 486 486 484 483 485 484 484 485 483 484 482 482 481 481 480 480 479 479 479 480 479 479 479 478 478 477 478 478 477 477 477 476 476 474 473 473 471 467 463 463 459 458 456 454 454 450 449 447 445 445 441 440 440 438 434 434 430 430 429 427 425 423 422 420 418 416 416 415 413 412 410 410 408 407 407 405 405 404 403 403 403 402 402 401 401 399 400 401 401 402 405 404 406 405 405 408 409 409 408 408 409 409 408 408 407 407 407 406 402 402 401 399 396 391 389 387 384 381 381 381 380 376 374 372 372 371 369 365 365 361 357 355 353 347 344 336 331 325 325 324 320 320 320 316 312 311 309 309 305 304 302 302 302 301 301 302 302 303 302 302 300 298 294 290 288 286 277 273 272 269 263 254 254 250 250 245 245 245 244 244 243 245 246 247 253 256 256 257 259 265 264 266 269 273 275 276 276 275 280 283 287 287 291 296 296 297 298 306 313 314 317 322 325 326 329 329 331 333 332 332 328 329 331 329 328 327 327 327 326 326 327 327 331 333 337 342 347 351 359 369 369 370 372 371 372 374 373 371 370 368 368 364 364 365 365 364 364 363 365 368 371 375 378 381 383 385 385 388 388 389 387 386 386 386 385 385 384 382 382 379 376 373 370 366 365 363 363 362 362 361 361 361 358 367 368 366 366 367 368 368 367 365 364 362 364 362 358 352 347 344 337 331 329 329 329 324 322 320 318 316 314 313 311 309 307 307 306 306 305 305 304 304 304 303 303 304 304 305 306 306 305 307 309 311 310 312 317 316 316 314 315 313 312 310 310 308 309 308 308 306 307 307 308 308 311 308 308 308 309 308 308 307 309 310 320 328 338 350 382 399 417 436 456 507 529 555 580 626 646 663 682 699 731 748 760 773 802 817 834 849 854 888 898 912 925 942
901 892 878 868 837 815 795 774 728 705 683 660 640 607 595 583 566 554 553 546 543 530 528 524 519 515 510 508 507 507 508 508 507 505 505 504 504 503 503 502 502 502 501 501 502 503 501 502 505 506 506 507 510 510 509 511 510 513 513 514 514 516 516 516 515 515 516 515 515 513 507 507 501 499 495 495 495 494 494 495 495 494 494 493 493 492 492 492 491 491 490 490 489 489 489 488 488 487 487 486 486 484 483 485 484 484 485 485 486 484 483 483 481 480 480 479 479 479 478 479 479 479 478 479 479 480 480 479 479 478 478 478 475 475 473 471 467 465 463 459 459 456 454 454 450 449 447 445 445 445 444 442 440 436 435 432 431 431 429 426 423 422 422 420 418 417 417 415 414 412 410 408 407 407 405 404 402 403 403 403 402 402 401 401 399 400 401 401 402 403 406 407 407 407 408 409 409 408 408 409 409 408 408 407 407 406 406 404 402 401 399 396 391 389 387 384 382 379 379 378 376 372 372 372 371 369 367 365 363 359 353 351 346 338 333 327 322 321 319 315 315 314 312 310 310 308 304 303 301 299 299 298 298 297 298 298 299 299 298 298 296 294 290 288 286 284 273 272 269 263 256 255 251 249 245 245 245 244 244 243 245 246 247 250 251 251 252 253 260 259 261 264 268 269 269 269 268 276 277 282 282 290 294 296 295 300 305 313 316 317 323 326 328 331 330 335 336 337 337 333 333 334 332 332 333 334 334 333 333 334 334 338 340 344 349 354 358 370 373 372 374 375 374 376 379 378 376 376 372 372 371 369 370 372 371 369 368 370 369 376 377 382 385 386 389 389 392 391 392 390 390 391 391 390 390 389 389 388 386 383 380 375 369 369 367 366 366 365 365 365 368 367 367 368 366 367 367 368 368 367 365 365 363 364 360 358 352 347 345 337 332 329 329 327 325 323 320 318 316 314 314 311 307 307 307 306 306 305 305 305 304 303 303 304 306 309 312 311 311 311 315 315 314 316 317 317 316 316 314 315 313 312 310 310 307 309 308 308 307 307 307 308 308 310 310 310 309 310 310 310 309 309 313 320 328 338 365 382 399 418 434 479 502 524 550 596 618 638 655 674 706 723 740 751 778 794 809 826 833 863 880 890 904 926 934
903 886 873 860 844 805 785 763 739 717 672 652 632 616 579 566 558 551 545 543 541 532 527 521 516 510 508 504 504 502 503 502 500 500 501 501 500 500 500 499 498 498 498 497 497 498 496 497 499 501 503 502 505 506 506 507 507 508 509 510 510 513 512 514 513 513 514 514 510 510 508 503 501 499 496 495 495 494 494 495 494 494 494 493 493 492 492 492 491 491 490 490 490 489 488 488 488 487 487 486 486 486 483 485 484 484 485 485 486 484 483 483 482 482 482 481 481 480 480 481 481 480 480 479 479 480 480 479 479 478 478 478 477 475 473 471 469 465 463 459 459 458 454 454 450 450 447 445 445 444 444 442 440 436 436 432 431 431 429 426 423 422 422 422 417 417 417 415 414 412 410 408 407 405 405 404 404 403 403 403 402 401 401 401 399 398 401 401 402 403 406 407 407 407 408 409 409 408 408 409 409 408 408 408 407 406 406 404 402 401 399 395 391 389 387 384 381 377 375 375 373 369 368 368 368 367 365 361 361 357 351 348 344 340 336 327 322 321 319 315 315 314 311 310 310 306 302 300 298 295 295 295 294 294 295 295 296 294 293 293 291 290 286 286 284 282 273 272 269 263 256 255 251 249 245 245 245 244 244 243 244 246 245 248 248 247 247 250 254 254 255 258 263 264 264 263 267 273 276 279 280 290 293 292 297 300 305 313 316 317 323 326 328 331 332 335 336 338 337 335 336 337 335 335 336 337 337 337 336 339 339 342 346 349 354 362 369 377 380 381 381 380 381 383 386 385 383 383 379 379 378 376 377 378 378 376 375 375 375 379 380 382 385 391 391 390 393 395 398 395 395 395 394 394 393 393 393 390 390 386 384 375 373 372 370 370 369 369 369 370 369 369 369 370 368 367 367 368 368 365 365 365 363 364 360 358 352 347 344 337 332 330 329 327 326 324 322 318 316 314 314 312 307 307 307 308 307 307 307 306 306 305 305 306 306 310 312 311 311 314 315 315 316 318 319 318 318 318 317 317 315 314 314 311 311 312 312 310 311 311 312 313 316 316 315 315 314 316 315 315 315 314 315 320 330 350 365 382 401 420 455 477 499 523 572 591 612 632 649 683 698 715 732 757 770 786 793 810 840 857 872 882 909 918 926
895 886 865 852 834 817 795 753 729 707 685 644 623 599 584 560 551 544 539 538 536 530 525 523 516 510 508 504 502 500 500 499 499 498 500 499 499 498 498 497 497 496 494 494 494 493 493 494 495 497 498 497 500 501 501 502 503 505 506 507 507 508 508 510 510 510 509 509 508 508 507 504 501 498 496 495 495 494 494 495 495 494 494 493 493 492 492 492 491 491 490 490 489 489 488 490 489 489 488 488 488 487 485 485 484 484 483 484 486 485 485 485 482 482 482 481 481 480 480 481 480 480 480 479 479 480 480 479 479 478 478 478 477 475 473 471 469 467 463 459 458 458 454 454 450 450 449 445 445 444 444 442 440 436 436 433 433 432 429 428 426 424 424 423 419 419 418 416 416 414 412 409 407 410 410 408 407 407 405 403 402 402 401 401 399 398 401 401 404 405 406 407 407 407 408 409 409 408 408 409 409 408 408 408 407 406 406 404 402 401 399 395 392 388 386 384 381 376 374 373 371 369 367 366 366 366 362 361 361 357 353 349 345 338 336 327 323 323 319 315 315 314 311 308 306 304 300 298 296 295 295 293 292 292 292 291 293 290 290 289 287 287 283 283 282 280 273 272 268 263 257 255 253 251 245 245 243 242 242 241 244 246 245 248 248 247 247 250 253 252 254 257 261 262 262 262 265 273 274 279 280 288 291 292 297 303 306 313 316 315 323 326 328 331 332 335 336 339 341 338 340 341 339 342 343 344 344 344 345 346 346 349 353 356 370 371 382 385 388 390 389 389 390 391 393 392 390 390 386 387 387 384 384 385 383 383 382 382 382 386 386 387 390 396 396 396 399 401 401 399 399 398 398 397 397 397 396 394 393 390 388 380 378 374 372 371 371 374 374 374 373 373 372 372 369 369 369 368 368 366 365 365 363 362 360 360 353 345 345 339 335 335 332 330 330 328 324 322 320 318 317 313 313 312 312 313 313 312 312 312 311 311 310 310 311 312 314 315 315 316 317 317 317 319 319 319 318 316 317 317 315 314 314 313 313 314 312 312 313 313 314 315 318 318 317 318 318 319 319 319 318 318 321 326 342 352 367 383 401 437 455 478 496 546 569 588 609 627 661 678 693 710 737 751 761 773 787 817 832 849 865 892 903 912 920
888 880 871 859 826 809 787 767 721 698 676 656 606 591 575 563 553 539 535 535 533 529 523 520 516 508 506 503 501 500 498 498 499 497 498 497 499 498 498 496 495 495 495 494 494 491 493 492 493 493 493 494 497 498 498 499 500 501 501 502 503 506 506 507 508 506 508 507 507 506 506 504 503 498 496 495 495 494 494 495 495 494 494 493 493 493 492 492 491 491 491 490 491 491 490 490 489 489 489 488 488 487 485 485 484 484 483 485 486 485 485 485 484 484 483 481 481 480 482 483 483 482 481 481 482 482 483 483 481 480 480 478 477 475 473 471 470 467 466 461 460 460 458 455 453 453 453 450 450 450 449 447 443 441 441 439 438 434 432 430 428 427 425 425 423 420 420 418 419 417 415 413 412 412 411 409 409 409 406 404 404 404 401 401 399 398 400 401 404 405 406 407 407 407 410 409 409 408 408 408 409 408 408 408 407 406 406 404 404 403 401 397 393 389 387 385 383 376 374 373 371 369 367 366 366 364 360 360 359 355 352 348 344 340 336 330 327 323 319 313 313 311 307 307 303 301 297 295 292 292 292 290 289 287 286 286 287 285 285 284 284 283 281 281 280 278 273 272 268 265 259 257 255 253 249 248 246 246 245 243 243 244 244 246 246 246 245 248 251 251 250 253 258 259 260 260 263 271 272 277 282 290 293 294 299 303 306 313 316 316 323 326 328 334 337 340 341 344 346 345 346 346 346 347 348 350 353 354 353 353 354 357 367 372 375 378 388 389 394 393 393 394 395 397 398 399 397 397 393 394 394 391 393 393 390 390 389 389 392 393 393 394 396 403 405 404 404 407 406 404 404 403 403 403 402 402 401 399 399 395 389 385 383 380 377 377 377 375 374 373 373 373 372 372 370 369 369 369 368 366 365 365 364 362 360 360 353 345 345 341 339 336 336 334 334 332 329 327 325 325 321 318 320 319 319 318 318 318 317 317 316 316 316 317 316 316 317 319 318 316 317 317 318 318 317 319 318 316 317 317 315 314 314 314 313 314 312 312 313 313 316 315 318 318 319 320 318 320 319 319 318 318 321 332 342 351 366 381 418 435 454 476 517 543 566 585 606 641 658 675 690 723 725 738 755 779 794 809 824 841 870 884 895 904 920
891 871 863 851 835 801 779 758 736 690 660 639 619 598 567 555 545 537 527 526 524 524 516 514 511 507 505 499 499 499 496 496 497 497 496 497 499 498 498 498 495 495 495 494 492 491 489 487 492 490 489 491 490 495 494 496 495 498 498 501 502 505 504 502 503 503 504 504 503 503 501 500 500 498 496 495 495 494 494 495 495 494 494 493 493 493 494 493 493 493 492 492 493 492 492 492 491 491 490 490 489 489 487 487 486 485 485 486 486 487 487 486 484 484 483 483 483 482 482 483 483 482 481 481 482 482 483 483 481 480 480 478 477 475 475 471 470 467 466 461 460 460 458 456 453 453 453 451 450 450 449 447 443 441 441 439 438 434 434 432 430 429 427 427 428 424 423 421 421 421 417 415 413 412 411 409 409 409 406 404 404 404 401 401 399 398 400 401 404 405 406 408 407 407 410 409 409 408 408 408 409 408 408 408 407 407 406 404 404 403 401 397 393 388 386 384 381 376 372 372 370 367 365 365 364 364 360 360 359 355 352 348 344 340 336 329 323 319 317 314 310 307 304 303 299 297 293 291 289 289 288 286 286 283 283 283 282 280 279 279 279 278 276 276 275 275 273 272 268 265 259 257 255 251 249 246 246 246 245 243 242 242 240 243 242 242 242 245 249 249 248 250 254 254 255 257 266 269 271 274 278 290 291 291 297 302 305 311 316 316 322 325 326 333 337 340 342 345 346 345 347 346 346 349 350 351 354 355 355 356 365 371 376 381 384 387 396 398 401 400 401 401 402 404 407 406 404 404 402 403 402 400 402 401 399 399 398 398 399 400 400 399 402 405 407 406 406 407 407 405 404 404 403 403 402 402 401 401 399 399 393 387 387 389 384 382 382 380 380 379 378 378 378 375 375 375 374 374 373 371 371 370 366 366 362 362 351 350 348 346 344 342 341 341 339 337 335 332 330 330 328 326 323 323 321 320 320 320 319 319 318 318 318 317 316 316 317 322 322 320 323 322 322 321 321 322 322 320 319 319 320 320 319 319 319 316 316 315 317 318 319 319 322 321 323 324 320 320 321 319 318 320 328 333 343 351 364 398 417 434 453 492 512 536 558 599 618 635 652 669 695 712 722 732 759 771 786 801 816 849 864 878 893 911 920
882 872 855 842 825 808 769 748 716 694 672 629 608 588 572 548 538 531 524 521 521 520 515 509 507 505 502 500 495 495 491 489 492 492 491 493 494 493 493 493 490 490 489 489 487 485 484 486 487 485 484 487 487 488 491 491 490 491 492 495 499 498 499 500 502 501 501 502 502 501 501 500 500 498 498 495 495 494 494 494 495 494 494 494 493 493 494 494 493 493 492 494 493 492 492 492 491 491 489 488 488 489 487 487 486 486 485 486 486 487 487 486 484 484 483 486 486 486 485 485 484 484 484 483 484 484 483 483 482 480 480 478 477 475 475 473 470 467 466 464 460 460 458 457 453 453 453 451 450 450 449 449 445 444 442 439 438 434 434 432 430 429 427 427 428 426 423 421 423 422 418 416 414 414 414 411 409 409 408 404 404 404 401 401 399 398 400 401 404 405 406 408 407 407 410 411 410 410 410 409 411 410 410 409 409 408 406 404 404 401 401 397 394 391 387 384 382 378 374 372 370 369 365 365 364 364 362 360 359 355 352 346 342 338 335 327 322 319 316 312 308 306 302 302 299 297 293 291 289 289 288 286 284 282 281 281 281 278 278 277 277 275 274 274 274 273 271 270 268 265 259 257 255 253 250 251 249 247 247 245 244 244 242 241 241 240 240 241 247 247 247 248 251 254 255 257 266 269 271 274 277 286 289 292 297 302 306 311 314 320 320 325 326 333 337 340 342 345 346 347 348 350 351 352 354 355 358 359 367 370 374 380 384 389 392 395 405 408 409 409 410 410 411 413 414 413 415 414 414 415 413 412 412 411 409 409 409 408 409 409 407 407 408 411 412 412 413 412 412 410 409 409 409 408 408 407 407 406 404 402 398 393 398 394 390 388 387 385 385 384 384 384 381 379 379 378 378 376 375 375 375 370 370 370 366 360 358 358 356 353 351 349 349 348 344 344 342 340 337 335 333 331 329 326 326 326 325 323 323 322 322 322 321 320 320 323 324 324 324 322 325 324 325 325 323 324 324 323 323 322 324 323 323 323 324 320 320 319 318 320 321 321 322 323 325 326 324 322 323 323 322 323 328 333 343 351 378 397 416 431 470 487 507 531 574 593 611 628 637 670 687 704 715 741 751 766 780 795 826 841 856 873 898 910 919
874 864 855 834 817 800 783 751 706 684 662 640 598 578 564 552 533 526 519 518 517 517 513 510 506 504 501 499 496 493 490 488 487 487 488 489 489 490 489 489 487 487 484 484 482 482 481 481 482 481 479 482 482 483 486 487 488 490 489 494 492 493 494 495 498 498 499 501 500 500 499 499 498 498 498 496 495 494 494 494 495 494 494 494 493 493 496 495 495 496 496 497 497 496 496 495 495 494 492 492 491 491 490 490 490 489 489 488 488 489 487 486 484 487 487 490 489 489 490 490 489 489 489 488 488 487 487 487 486 484 483 481 479 479 475 473 470 468 468 466 462 462 461 461 461 456 456 456 455 453 451 451 449 448 444 442 440 440 436 435 433 431 429 430 430 428 429 428 426 426 424 420 418 417 417 413 413 409 408 406 406 405 403 403 400 402 401 401 404 405 407 408 407 407 408 409 409 408 408 408 409 408 408 411 411 410 410 408 407 407 404 401 397 395 391 387 385 381 377 373 371 369 365 365 364 362 360 358 358 354 350 346 340 337 333 333 322 321 317 310 310 304 300 300 298 295 293 291 289 289 288 286 284 280 280 279 279 278 278 277 277 275 274 274 274 273 271 270 268 266 260 258 256 256 256 253 253 251 250 246 246 246 243 241 239 239 238 240 246 245 245 246 249 254 255 257 266 269 271 274 277 285 288 289 294 302 307 310 313 319 320 325 326 333 339 342 343 347 349 352 352 355 358 359 361 362 369 371 374 376 379 385 392 398 401 409 414 417 420 420 421 420 422 423 424 424 423 423 421 422 420 420 421 419 416 416 416 415 416 416 416 417 416 418 417 417 420 420 419 417 416 416 416 415 415 414 414 414 412 406 406 400 398 392 392 390 389 387 387 386 386 386 383 381 381 382 380 379 379 379 378 376 375 375 371 367 363 361 361 357 356 356 356 355 351 351 349 347 344 342 340 338 336 334 333 333 332 330 328 328 327 327 326 326 326 325 325 324 324 322 325 324 324 324 323 323 322 322 323 323 324 324 323 323 324 320 320 319 319 320 321 321 324 325 327 328 326 325 327 326 326 327 328 333 343 365 377 394 413 447 467 484 504 549 568 586 593 612 646 662 679 696 717 733 743 758 787 801 818 833 848 881 891 906 914
866 856 847 838 826 784 766 742 720 672 652 630 609 569 556 543 533 517 515 515 514 512 510 506 501 500 496 496 496 495 490 486 486 485 486 489 489 490 490 487 487 487 486 484 482 482 481 480 482 481 479 479 478 481 484 484 485 486 484 484 490 491 493 492 497 496 498 499 499 498 499 499 499 498 498 496 495 494 494 494 495 494 494 495 495 496 497 499 498 498 499 499 498 498 497 497 497 496 494 493 493 493 492 492 491 491 491 490 490 491 489 490 488 488 487 489 490 489 491 490 489 489 490 490 489 489 489 488 488 486 485 482 479 479 475 473 471 469 468 466 464 463 463 463 462 462 461 461 461 458 456 456 454 453 449 445 443 443 441 439 437 436 436 435 433 431 429 428 426 426 424 420 418 417 417 415 413 409 408 408 406 405 403 403 401 402 402 401 401 405 407 408 408 407 408 410 409 409 408 408 409 408 408 411 411 410 411 411 411 407 405 403 399 397 391 389 387 381 379 372 370 368 364 363 363 361 359 355 354 350 348 348 340 337 333 331 322 320 316 309 306 304 300 298 296 292 290 288 286 285 285 283 281 277 276 276 275 275 274 274 274 273 273 272 274 273 271 270 270 266 259 257 256 254 254 253 253 251 250 246 246 246 243 241 239 239 238 240 246 245 245 246 246 251 254 255 265 268 271 274 278 283 286 287 292 300 303 306 309 315 317 322 323 336 339 342 344 347 349 352 352 355 360 361 368 371 375 377 380 381 384 392 399 403 408 416 419 422 424 425 424 426 425 427 430 429 429 428 426 426 425 425 426 424 422 422 421 420 422 422 421 422 422 422 421 420 422 421 421 419 418 418 418 417 417 416 416 416 412 408 408 402 400 394 394 393 393 389 389 388 388 387 385 383 384 384 382 381 381 381 380 378 377 377 373 369 365 365 366 362 360 360 358 357 353 353 351 347 346 344 342 340 336 334 333 333 331 330 328 328 327 331 330 330 329 327 327 326 326 327 327 325 324 324 325 325 324 324 325 325 326 324 323 323 324 324 321 321 321 322 323 326 326 326 327 326 326 326 327 326 326 327 329 334 352 364 375 391 423 442 459 476 520 541 551 570 585 621 638 655 672 701 711 728 738 765 779 794 811 827 861 876 888 902 920
869 858 839 824 810 793 758 734 712 686 643 621 601 582 547 535 525 516 514 511 509 507 505 498 494 494 492 489 489 489 488 481 480 480 481 483 485 485 483 483 482 482 483 483 480 480 479 479 480 480 479 479 479 480 483 482 480 483 483 484 487 490 491 491 492 495 496 497 497 497 498 497 497 497 496 496 495 495 494 492 493 493 492 494 493 495 494 497 497 496 498 497 497 496 496 495 495 495 494 494 493 493 492 492 491 491 491 490 490 493 492 494 491 493 492 492 493 493 494 495 495 494 496 495 495 494 494 494 493 487 487 483 481 481 477 473 471 471 468 466 464 464 463 463 462 462 461 461 461 459 458 456 454 453 451 446 443 443 441 439 437 436 438 437 437 436 433 432 428 428 426 424 420 419 419 417 413 411 409 408 406 405 403 403 403 402 402 403 403 405 407 408 408 407 408 410 409 409 408 408 411 411 410 413 413 412 412 411 411 407 405 403 399 397 393 391 389 381 379 372 370 368 364 363 363 361 359 355 354 350 348 348 341 337 333 331 322 320 316 310 306 304 300 298 298 292 290 290 288 287 287 284 282 278 278 278 277 276 276 276 275 275 274 274 274 273 271 270 268 263 257 257 256 254 254 253 253 251 250 246 246 246 244 239 239 239 238 243 246 245 245 246 246 249 252 253 263 266 271 272 277 281 284 286 291 298 302 305 308 316 317 322 323 336 339 344 345 349 350 354 357 359 370 372 373 378 382 384 387 388 396 399 406 411 415 423 426 429 431 430 430 431 431 434 433 433 436 436 433 433 433 432 433 431 429 429 428 428 427 427 425 424 426 424 423 422 424 423 423 421 420 418 418 417 417 419 418 418 414 410 410 406 403 398 397 397 395 394 394 394 393 394 392 390 392 389 387 387 386 386 385 383 383 383 380 376 373 370 370 368 366 365 363 362 360 360 358 354 353 351 349 345 340 339 339 338 336 334 337 335 335 334 334 334 331 331 330 330 328 329 327 325 324 324 325 325 325 326 325 325 326 326 325 325 326 324 323 323 323 324 325 328 328 328 329 328 328 328 329 330 330 331 332 344 352 364 376 406 422 439 456 491 506 526 545 564 596 615 632 649 681 693 707 724 746 759 773 788 805 838 855 870 884 911 919
862 845 835 815 802 784 767 724 702 678 656 635 592 573 553 539 521 514 512 510 508 504 502 500 491 490 488 488 487 487 487 484 481 480 481 481 482 482 483 481 481 482 483 483 482 480 479 479 479 480 479 479 479 478 481 481 480 482 483 484 487 487 488 487 489 492 493 496 495 495 495 497 497 497 496 496 495 495 495 496 497 497 495 496 495 497 496 496 497 498 496 496 497 496 496 496 497 496 496 496 495 495 494 494 494 493 492 492 492 493 494 496 495 495 494 496 497 498 499 499 500 500 501 501 500 500 499 499 498 496 491 487 483 483 477 475 473 472 470 468 466 466 465 465 464 462 462 461 461 459 458 456 454 454 451 447 445 445 443 441 440 440 440 439 440 442 439 437 433 431 431 431 426 424 422 417 416 412 412 412 408 407 405 405 404 404 403 405 404 405 407 408 408 407 408 410 409 409 410 410 413 412 413 416 416 416 413 413 413 409 409 404 401 400 397 391 389 382 379 374 372 370 366 363 363 361 359 358 356 352 349 348 342 337 335 333 325 321 316 312 308 306 300 298 298 292 290 290 286 283 283 281 281 277 276 276 276 275 274 274 274 273 273 272 272 272 268 265 265 263 257 257 256 254 254 253 253 251 251 246 246 244 244 239 239 239 238 243 244 244 243 247 246 249 252 255 263 266 271 274 278 281 285 286 296 297 300 303 308 316 317 322 323 336 341 346 347 354 355 365 366 368 376 377 378 383 389 391 394 395 405 408 415 418 424 429 432 435 436 437 437 438 438 442 442 442 443 441 440 440 440 439 440 438 436 436 433 433 433 432 432 431 429 427 427 426 428 427 427 423 422 420 420 420 419 419 419 418 414 410 410 406 404 400 400 399 397 396 396 396 395 396 394 392 393 391 389 389 388 388 387 387 387 386 386 382 378 377 375 375 375 374 372 370 368 367 361 361 361 359 353 351 345 345 342 342 340 338 338 335 335 335 334 334 331 331 331 328 328 329 326 323 324 324 326 325 324 326 326 325 326 326 325 325 326 324 324 323 325 328 327 330 330 331 332 332 332 333 332 334 333 335 338 344 353 363 390 405 420 429 461 479 499 520 538 573 590 608 625 656 673 685 699 726 738 751 765 780 813 830 847 862 891 906 915
851 840 830 818 793 776 759 740 716 670 647 627 604 565 546 535 527 514 512 510 510 501 499 496 494 490 487 486 486 486 485 483 481 480 481 481 482 482 481 479 479 480 481 481 481 479 478 477 479 480 480 477 477 477 478 479 479 480 481 482 485 485 486 487 489 492 491 493 495 497 496 500 499 498 498 498 497 497 496 498 499 498 498 498 497 497 496 496 499 500 498 498 499 498 498 497 497 498 498 497 497 495 494 494 492 491 491 491 490 490 493 496 495 493 494 496 497 498 499 501 500 502 503 504 504 503 503 502 502 500 496 490 488 488 482 477 476 474 472 471 471 471 470 470 469 467 465 465 461 459 458 456 454 454 452 451 447 447 445 443 440 440 440 439 440 442 440 438 435 431 431 431 429 426 424 419 418 414 414 413 410 409 407 407 406 408 405 407 408 409 409 410 410 409 410 412 411 411 412 412 415 414 416 417 416 418 416 415 414 411 410 406 404 401 397 391 389 382 380 374 372 370 366 364 363 361 359 357 354 352 349 348 342 337 335 333 325 321 316 312 310 306 300 298 298 292 290 290 286 284 283 279 279 275 275 274 274 273 273 271 270 270 269 269 267 267 266 264 262 261 257 257 257 254 254 253 253 251 251 245 244 242 242 239 239 239 238 243 243 244 244 243 244 247 249 253 261 264 269 272 277 280 283 284 292 295 298 301 306 312 314 319 322 335 340 346 349 359 360 367 368 376 379 381 382 389 393 395 396 401 409 414 418 421 428 434 437 439 443 443 442 442 442 446 446 446 447 445 444 446 443 446 446 444 442 441 439 439 438 438 437 437 435 433 432 432 431 431 427 425 423 419 419 418 418 417 417 416 413 409 408 403 402 400 400 399 397 397 396 396 395 397 396 394 395 393 391 391 390 390 389 389 388 388 388 384 380 379 377 377 377 376 376 373 371 369 367 367 366 359 356 353 349 351 346 346 344 342 338 337 337 337 334 334 332 331 329 329 327 328 326 325 325 324 326 325 325 326 326 327 327 326 326 325 327 324 324 324 327 328 328 331 330 331 333 332 332 333 333 334 334 337 338 345 351 373 387 401 409 441 455 472 491 511 551 566 583 602 634 650 667 679 709 720 731 747 774 791 806 824 841 873 887 900 909
857 846 825 813 801 785 751 732 708 685 639 618 596 576 541 532 523 516 510 508 508 504 499 491 489 489 487 483 483 482 482 478 476 475 475 476 477 477 477 476 477 477 480 481 481 479 478 478 479 479 478 478 477 480 480 481 480 482 483 483 487 487 486 488 489 492 493 493 494 495 497 500 499 499 498 498 497 497 496 498 497 498 498 498 497 497 496 496 499 500 498 498 499 497 496 496 496 497 496 496 495 495 493 492 492 492 491 491 489 488 493 494 495 495 495 496 497 498 500 504 504 505 505 506 506 505 505 504 504 502 498 490 488 488 483 479 476 474 472 472 471 471 471 470 470 467 465 465 461 459 459 456 454 454 452 451 449 447 445 443 443 440 440 439 441 442 441 439 437 433 433 432 430 428 426 422 420 420 416 415 412 411 409 408 408 408 407 408 410 409 409 410 410 409 409 412 411 411 411 412 415 414 416 417 416 418 416 415 415 411 411 407 404 401 397 395 389 382 380 376 372 370 368 366 363 363 359 359 355 353 350 348 344 339 335 333 331 323 316 312 310 306 301 298 298 292 290 290 286 284 283 279 279 275 273 273 272 272 271 269 269 268 268 266 265 265 263 260 258 258 257 257 257 255 254 253 253 251 251 245 244 242 242 240 239 239 239 243 243 242 244 243 244 246 249 254 261 266 269 272 277 278 280 281 291 294 299 302 304 311 314 319 322 335 340 347 351 363 366 371 374 382 385 388 389 397 400 402 405 410 418 422 427 430 433 438 441 444 449 448 448 448 449 450 450 449 451 450 450 451 449 452 451 449 447 447 444 444 444 443 443 441 439 437 436 435 433 433 428 425 423 420 419 419 418 418 417 415 413 409 405 403 403 401 400 399 397 397 397 396 396 397 397 396 396 394 391 391 390 390 390 389 390 390 390 388 384 385 385 384 382 381 381 379 377 374 372 372 372 362 360 362 356 351 350 350 346 344 340 339 339 338 336 336 334 332 329 327 327 328 324 325 325 325 326 325 325 327 326 327 327 326 326 327 327 325 324 325 327 328 328 332 332 333 335 336 334 335 335 336 337 339 340 345 362 372 384 399 425 438 450 464 483 522 543 558 575 611 626 644 661 688 703 713 725 751 766 783 799 816 848 865 882 896 913
855 845 834 810 794 779 762 724 700 677 653 610 588 567 550 529 522 515 509 509 505 503 499 495 488 486 484 483 483 482 480 480 476 475 475 475 476 475 477 475 477 477 480 481 481 479 478 480 481 480 478 478 479 480 480 481 481 482 483 483 484 489 488 490 489 495 495 495 496 497 498 500 499 501 502 501 501 501 500 501 501 502 500 500 501 501 500 499 503 502 500 501 501 499 497 496 496 497 497 496 497 497 495 494 494 494 493 493 491 490 493 496 497 497 497 498 499 500 502 505 506 507 507 508 507 507 507 506 506 504 500 496 490 488 484 482 477 475 474 474 473 473 471 470 470 468 466 465 465 459 459 457 456 454 452 452 450 447 445 445 444 440 440 440 441 441 442 441 441 439 436 436 434 434 430 427 425 423 419 419 415 415 414 414 413 413 413 412 412 413 411 412 412 411 411 414 412 411 411 412 415 416 418 419 418 420 418 417 417 411 411 409 405 401 397 395 389 382 380 376 374 372 368 366 365 365 361 361 356 354 352 350 348 342 339 335 331 322 318 314 310 306 302 300 298 294 290 290 286 284 283 280 279 275 273 273 272 272 271 269 269 269 268 266 265 265 263 261 258 258 257 257 257 255 254 254 253 251 251 247 246 244 244 241 241 241 240 243 243 242 244 243 243 247 251 254 263 268 271 273 275 275 278 281 289 292 297 302 305 311 314 319 322 335 342 349 355 368 371 378 383 391 394 397 398 406 409 411 414 422 427 431 434 436 439 442 445 448 454 454 453 453 454 456 455 455 456 456 457 458 458 459 459 457 455 454 452 451 451 449 448 446 444 443 441 445 441 437 430 428 425 422 421 421 420 420 419 417 413 411 407 403 403 401 400 400 398 397 397 396 396 397 399 400 399 397 395 395 394 394 394 393 394 394 394 391 391 392 390 390 387 387 387 385 380 380 378 378 372 368 364 362 353 351 351 350 346 346 342 341 341 340 338 338 336 332 331 329 325 325 324 326 325 327 326 326 325 327 326 328 327 327 326 328 327 325 324 326 327 329 333 333 332 334 335 338 338 339 339 340 341 341 343 352 361 371 383 405 420 432 444 456 495 514 535 550 586 603 618 635 664 680 697 707 734 745 760 777 810 827 842 859 876 900 909
854 843 833 821 790 774 757 739 693 671 647 623 602 564 548 536 527 513 509 509 505 503 497 494 490 484 484 483 483 482 480 480 478 477 477 476 476 477 477 476 478 479 482 483 483 482 480 481 481 482 482 481 483 484 485 486 486 486 487 486 488 491 492 493 493 496 498 498 499 501 500 503 503 503 504 505 505 504 504 505 504 506 507 505 506 506 505 505 506 507 507 505 504 502 500 500 499 501 500 500 498 497 495 495 494 494 493 493 491 490 493 495 497 497 497 496 501 502 504 507 508 509 509 508 508 507 507 507 506 504 500 500 496 490 488 484 482 480 479 479 479 476 474 472 470 469 467 467 467 459 459 457 457 455 452 452 450 448 445 445 445 442 440 440 441 441 443 443 443 441 440 440 439 439 435 431 431 429 425 422 420 420 418 417 417 417 416 414 413 415 414 415 415 415 414 417 415 415 414 414 417 416 418 419 419 420 418 418 417 411 411 409 405 401 397 395 389 382 380 376 374 372 368 366 366 363 361 361 359 355 352 352 348 346 342 340 336 325 318 316 312 306 302 300 300 296 292 290 286 286 283 280 279 276 273 273 273 270 270 268 266 265 265 264 264 263 261 261 259 257 256 257 257 255 254 254 253 251 249 245 245 244 244 242 241 241 240 243 243 242 242 241 241 246 249 254 263 267 270 273 275 277 278 280 288 291 297 302 305 311 315 319 331 336 342 349 355 370 373 382 386 393 399 404 405 410 411 413 418 424 429 433 435 439 441 444 447 453 455 454 456 457 458 459 459 459 458 459 459 460 463 465 464 462 460 459 457 457 456 454 454 452 454 451 447 445 441 437 430 428 426 422 421 421 421 420 418 418 414 410 407 404 403 401 401 400 398 398 397 397 396 398 399 400 400 398 395 395 395 394 394 393 395 394 394 393 393 393 390 388 388 387 387 381 381 381 379 375 372 370 367 364 353 351 351 351 346 346 342 342 341 339 337 337 332 330 330 328 327 325 325 326 326 327 327 326 326 327 327 328 328 327 327 328 328 325 325 326 328 329 333 333 333 334 337 338 340 341 343 342 344 343 348 351 358 368 393 402 414 427 439 470 489 509 528 561 580 597 610 645 656 672 689 711 726 737 752 784 802 819 834 851 880 892 901
858 849 828 816 800 785 752 735 712 688 642 619 599 578 547 536 527 520 509 509 505 505 497 492 490 484 484 483 483 483 480 480 478 478 477 476 476 477 477 475 476 478 477 483 483 483 481 482 481 483 484 481 483 484 486 488 488 488 489 490 491 494 496 497 496 499 501 500 501 501 501 502 505 504 506 505 505 504 504 504 505 506 507 505 506 506 506 505 506 508 507 505 504 502 501 502 501 501 500 500 499 499 497 497 496 496 495 495 495 492 495 497 498 497 497 498 500 502 504 507 508 509 509 508 508 507 507 507 506 504 500 500 496 494 488 484 482 482 480 479 479 477 474 472 470 470 468 467 467 467 459 457 457 455 452 452 450 448 445 445 445 443 441 440 441 441 442 443 443 441 441 440 439 439 435 431 431 429 425 423 421 420 418 417 417 417 416 414 414 415 415 414 415 415 415 416 415 415 415 416 417 417 420 420 419 420 418 418 417 412 411 409 405 401 397 395 390 382 380 376 374 372 368 366 366 363 363 363 362 358 356 356 352 348 344 340 336 325 318 314 311 306 303 301 300 298 292 290 286 286 284 280 279 274 272 271 271 269 268 266 264 264 263 263 262 262 258 259 257 257 258 257 257 255 253 252 252 248 246 242 241 241 241 240 240 239 239 243 245 244 244 243 243 248 249 255 260 262 265 268 270 274 275 276 284 287 294 299 303 312 315 320 331 336 342 351 367 374 377 387 398 402 408 413 414 417 420 422 427 428 432 436 437 441 443 446 449 455 457 456 458 460 464 465 465 464 464 465 465 466 469 470 472 469 467 467 465 464 462 464 462 458 452 452 448 446 440 438 432 430 428 424 423 423 423 419 417 416 412 408 406 402 402 401 401 401 398 398 397 397 397 398 401 401 398 398 396 395 395 395 394 394 395 395 397 397 397 395 392 390 390 389 386 382 382 381 379 375 373 371 367 358 354 352 351 349 348 348 344 342 340 339 337 335 333 331 330 328 328 325 325 325 324 325 325 325 328 327 327 328 328 327 327 328 326 326 325 327 328 329 334 334 333 338 339 346 348 349 347 344 346 345 348 353 360 380 390 399 411 424 448 465 482 501 535 553 571 589 619 637 648 664 693 705 718 730 763 778 795 813 828 862 876 884 893
858 850 839 815 799 782 766 733 707 683 661 618 599 578 562 536 527 520 513 509 507 507 503 492 490 485 484 483 483 483 482 480 478 478 477 477 476 478 477 479 478 479 479 482 483 483 482 482 485 486 487 485 486 489 491 490 491 491 492 494 495 498 499 499 500 503 504 504 505 505 504 506 507 506 508 507 507 506 506 505 507 508 509 507 507 508 507 507 507 508 507 505 509 506 504 505 505 504 504 504 502 501 499 497 497 496 495 495 495 493 495 497 498 498 497 498 500 501 506 507 508 508 509 509 508 508 507 507 507 506 500 500 498 496 492 488 486 486 482 479 479 477 477 473 472 476 473 469 467 467 463 459 459 457 456 454 452 450 449 447 447 445 444 442 443 443 444 445 445 445 444 443 443 443 439 435 435 432 427 425 422 422 420 420 419 419 418 418 417 419 418 418 419 419 418 420 419 424 422 423 423 422 424 421 421 420 418 418 417 414 413 409 407 403 399 396 392 383 380 377 375 374 372 370 369 367 365 365 364 362 360 359 356 350 346 342 337 331 322 316 314 307 304 301 300 298 291 289 287 284 284 278 278 274 272 271 271 269 268 266 264 264 263 263 262 262 258 259 257 257 258 257 257 255 253 250 250 246 244 240 240 239 239 238 238 238 237 242 243 243 244 243 243 246 246 252 257 258 261 266 271 274 275 275 283 288 293 299 304 312 315 320 331 338 344 353 369 376 381 391 402 409 415 420 423 424 428 429 434 435 440 439 439 444 445 448 451 457 459 458 460 464 467 469 468 468 467 469 469 471 473 474 474 473 471 471 474 472 471 468 462 460 452 452 448 446 440 438 433 430 425 424 424 422 421 419 417 417 409 409 407 404 404 403 403 403 401 400 400 399 399 402 403 403 401 398 398 398 397 398 398 398 399 398 400 399 397 395 393 391 391 390 386 382 382 382 379 375 373 371 365 358 354 352 351 349 349 349 343 342 340 340 338 335 333 333 333 328 330 328 327 327 326 326 326 327 328 328 327 328 328 328 329 328 326 328 327 329 332 331 336 337 346 347 349 350 353 353 350 348 349 349 352 355 367 377 387 396 408 431 443 459 474 512 527 544 563 596 613 630 642 673 685 699 714 738 755 770 788 820 837 855 868 877 894
861 852 841 831 799 782 767 751 706 682 659 639 599 578 563 547 529 522 517 513 509 508 505 499 494 485 484 484 484 483 483 480 480 479 479 479 478 479 479 479 478 481 481 482 482 484 484 484 487 488 489 489 490 495 496 496 497 496 498 497 497 501 503 502 504 506 508 507 507 508 508 509 510 510 511 511 510 510 509 509 509 508 511 509 509 510 511 511 510 515 515 514 516 515 511 513 512 510 509 509 507 505 501 500 500 500 497 497 497 495 497 499 500 500 499 500 502 503 506 507 509 508 510 509 509 508 508 507 507 506 504 500 498 496 494 492 491 491 487 485 484 481 481 480 480 477 475 471 469 469 465 459 459 457 457 454 452 452 451 449 449 445 444 444 445 445 446 447 447 446 446 446 445 445 441 441 438 436 429 427 426 426 424 423 423 422 422 422 421 422 422 422 423 422 422 423 425 424 422 423 421 422 424 422 421 421 419 418 418 414 413 410 408 403 400 398 394 384 382 380 377 376 374 373 373 371 369 368 368 365 365 365 361 357 350 347 344 340 327 322 320 312 306 303 301 298 293 291 289 286 284 279 278 274 272 272 271 269 268 266 264 262 261 261 261 260 258 258 257 257 258 256 256 253 253 249 249 246 244 240 238 238 237 237 236 236 236 240 243 243 244 244 243 246 246 252 255 257 260 266 269 272 274 273 283 285 291 298 304 310 315 320 332 338 345 353 370 376 383 393 404 411 419 422 429 428 433 433 436 437 442 441 443 446 447 450 453 460 461 461 462 466 470 471 471 473 473 473 474 475 477 478 478 477 477 477 475 472 472 468 462 457 453 452 449 447 441 439 433 431 423 421 421 417 416 414 412 412 406 406 403 403 402 402 402 401 399 399 398 398 399 400 402 401 401 399 398 398 398 399 398 398 399 399 400 400 398 394 394 391 391 389 387 383 382 380 380 376 374 368 366 358 355 352 352 350 348 347 341 341 339 338 336 334 332 332 331 329 330 328 327 327 327 326 326 327 328 328 329 329 328 328 329 329 327 328 328 331 332 334 339 343 346 348 349 352 353 355 353 350 350 350 353 361 364 372 383 391 411 423 435 450 485 504 519 536 571 588 605 622 650 665 677 691 714 730 747 763 797 812 830 847 869 877 886
872 850 840 828 814 779 763 748 729 703 660 639 618 599 564 552 543 535 520 516 513 511 505 499 494 490 484 484 484 483 483 481 480 480 479 479 479 478 479 479 479 480 479 481 480 483 484 484 485 487 489 489 490 492 496 496 499 499 501 501 501 502 506 506 507 507 511 511 511 510 510 511 512 512 512 513 512 512 512 511 511 510 512 511 511 512 515 515 516 517 517 516 516 515 513 513 512 512 512 509 507 505 503 501 500 500 498 497 497 495 495 499 500 500 500 497 500 503 505 507 509 508 510 509 509 508 508 507 507 507 505 501 498 496 494 496 492 491 487 493 488 488 488 486 483 481 479 475 473 473 470 465 461 459 458 456 452 452 452 449 449 445 445 444 445 445 446 448 447 447 446 446 445 445 441 441 438 436 431 429 428 426 424 424 423 423 422 422 421 423 422 424 425 424 424 425 427 424 424 424 423 424 426 424 422 421 419 419 418 414 414 410 408 404 400 398 394 385 383 381 377 376 374 374 373 373 369 368 368 366 365 365 361 357 350 349 346 342 327 322 320 312 305 301 301 297 293 291 289 288 284 279 278 275 272 272 271 269 269 267 264 262 262 261 261 261 260 258 257 257 257 256 256 252 252 249 247 245 243 239 238 238 238 237 237 236 236 240 243 243 244 244 243 245 246 249 252 254 257 263 268 269 271 277 278 281 290 296 302 311 316 322 334 340 347 355 372 378 385 395 408 415 423 428 434 434 437 437 439 439 442 442 443 446 447 451 457 462 463 463 466 467 470 471 471 474 474 473 475 476 477 479 479 478 478 477 475 473 472 469 463 457 453 453 449 445 439 437 432 427 424 420 420 414 412 409 409 408 406 404 404 402 401 401 400 400 398 397 397 398 399 401 400 400 399 401 400 400 399 399 399 398 399 400 401 401 396 394 394 392 391 389 387 383 383 380 380 376 374 368 366 359 355 352 352 350 346 342 340 338 338 337 336 334 332 332 329 329 331 326 328 327 327 326 326 327 329 328 330 331 331 330 331 331 329 330 341 340 342 341 348 351 352 354 358 358 357 359 356 354 354 352 356 361 364 369 380 398 407 418 430 461 478 497 511 545 563 582 599 630 645 661 672 700 708 720 737 772 789 804 822 854 865 873 881
869 858 849 826 814 799 781 748 729 705 682 641 622 603 585 559 550 541 533 522 516 514 510 501 494 490 485 484 484 483 483 481 480 480 480 479 480 480 483 482 482 482 481 482 482 485 488 489 491 490 490 491 491 495 498 501 504 504 503 506 506 507 510 511 514 514 515 516 516 516 514 515 516 516 515 517 516 516 515 515 514 514 515 519 514 516 517 517 518 519 519 518 518 517 517 517 514 514 514 512 509 507 505 503 501 500 500 498 497 495 495 498 499 498 500 498 501 500 502 503 506 505 508 508 507 507 507 506 506 505 505 501 499 498 496 501 502 502 500 498 496 495 495 493 490 488 485 482 482 478 476 469 465 462 460 458 456 454 454 450 449 447 447 446 446 447 448 450 449 449 448 448 448 447 447 446 444 440 435 432 432 430 429 427 427 426 426 426 431 430 430 429 429 428 428 429 429 428 428 426 424 425 426 424 422 423 421 421 420 414 414 410 408 408 402 398 394 394 385 384 380 380 378 377 377 377 374 374 373 371 369 369 367 363 357 355 353 349 331 327 323 323 312 307 305 299 295 293 291 289 284 279 279 275 272 272 272 270 269 267 265 263 262 262 261 261 260 258 258 257 257 256 256 252 250 249 247 245 243 239 239 236 236 235 235 235 234 239 242 242 243 242 242 245 243 251 254 254 257 261 266 269 269 277 277 283 292 301 306 315 319 329 337 342 351 359 376 382 389 399 412 419 425 430 436 438 441 441 442 441 444 444 445 446 448 451 456 460 464 463 466 467 471 472 473 474 474 474 475 477 478 479 479 478 478 478 476 475 473 469 465 459 455 455 451 445 442 436 430 426 422 419 418 414 410 410 410 409 407 406 406 402 402 401 401 398 398 398 399 400 402 401 401 402 402 401 401 401 400 400 400 399 400 400 400 399 395 393 393 391 390 388 386 382 379 377 377 377 371 369 365 359 353 353 353 347 343 341 340 338 338 337 337 337 334 334 332 331 333 330 332 331 331 330 330 331 331 332 332 333 333 334 333 337 337 340 343 346 347 350 352 353 354 359 362 362 363 362 360 358 360 355 357 362 365 370 387 397 404 415 443 458 474 491 522 539 556 575 610 623 639 656 678 692 700 714 747 764 781 797 831 847 859 869 887
871 860 851 843 818 801 783 766 731 707 686 667 629 612 594 580 559 550 541 532 522 518 514 509 496 492 487 488 486 485 485 485 482 482 482 481 482 484 485 485 486 487 487 486 487 490 494 493 494 492 493 495 496 499 504 505 509 511 510 514 513 514 517 519 521 521 522 522 521 521 519 519 521 521 522 522 520 519 519 519 520 519 519 519 518 518 519 519 518 521 521 520 520 519 519 519 518 518 517 515 513 511 509 507 506 504 504 502 501 499 497 500 501 500 502 500 499 500 502 503 503 504 507 507 506 506 505 505 505 504 503 503 503 502 502 505 505 504 502 502 501 501 500 498 496 492 492 488 488 482 480 474 470 466 464 462 460 458 457 453 453 451 450 450 450 451 452 453 453 452 452 452 451 451 450 450 448 447 443 440 439 435 435 433 432 432 432 431 431 431 430 429 429 429 428 429 429 429 428 426 426 427 426 424 422 422 421 421 420 420 414 412 410 410 402 400 396 394 387 386 382 382 380 379 379 379 378 378 377 375 374 372 372 368 362 360 358 354 338 335 331 323 312 307 303 298 293 291 289 287 283 277 277 273 273 272 272 270 267 267 265 263 262 262 261 261 261 258 258 258 257 256 256 252 250 249 247 245 243 239 239 237 236 236 235 235 235 239 242 242 243 239 239 240 240 250 253 252 254 258 263 266 266 272 277 282 290 300 306 315 321 331 339 344 353 368 378 384 391 408 414 421 427 432 440 440 443 443 444 443 445 444 446 447 448 451 456 461 462 462 465 466 471 473 474 475 475 475 476 477 478 480 479 479 479 478 476 475 473 469 464 458 454 454 446 444 440 435 427 423 419 417 413 413 411 410 410 409 407 407 407 404 404 403 403 401 400 402 403 404 404 403 403 402 402 402 402 401 401 400 400 399 399 399 398 396 394 392 391 389 389 387 384 377 376 373 372 370 366 366 362 356 354 353 350 346 342 339 339 339 338 338 337 337 335 334 332 332 333 331 332 332 331 331 330 332 335 336 336 338 337 338 338 338 339 340 343 346 347 351 352 353 358 359 363 362 362 361 359 357 358 356 357 361 364 375 384 392 399 421 435 450 466 497 514 531 548 583 600 615 631 660 670 684 692 720 737 754 772 806 823 839 845 867 875
875 856 847 838 827 801 784 766 751 711 690 673 653 617 601 589 577 559 550 541 536 525 519 512 507 496 490 488 488 486 485 485 483 482 482 481 483 484 487 487 488 487 487 487 486 489 492 492 493 491 492 493 495 497 502 504 505 511 511 514 515 516 519 521 522 523 524 524 524 523 523 526 527 526 526 526 526 525 523 522 522 520 519 519 519 518 519 519 519 521 521 521 520 520 519 519 519 518 518 516 515 515 509 507 507 505 504 502 501 501 497 500 501 501 500 498 498 499 500 500 500 501 504 503 503 503 504 503 503 501 504 504 505 505 504 507 507 506 504 504 503 503 502 500 498 496 494 488 488 484 480 474 471 469 464 462 460 458 458 454 453 453 452 452 452 453 454 455 455 455 454 454 453 453 451 450 448 448 444 440 440 436 441 438 436 436 435 435 435 434 432 432 431 431 430 430 429 429 427 425 424 426 425 423 421 420 420 419 419 419 415 412 410 410 402 400 397 393 387 387 383 382 380 380 379 379 378 378 377 375 375 373 372 368 366 364 362 358 344 337 333 327 320 312 307 303 294 291 289 287 285 276 276 272 273 271 270 268 268 265 263 261 259 258 258 258 257 258 258 258 257 257 256 253 250 250 248 246 243 239 239 237 236 236 235 235 235 234 236 235 238 238 237 239 238 248 251 251 252 258 263 265 264 274 279 284 290 302 309 315 322 331 340 345 353 368 378 385 391 408 415 423 428 434 439 439 442 441 442 444 445 445 446 446 447 453 455 460 461 461 462 464 468 470 471 472 472 472 474 476 477 477 476 476 476 475 475 474 472 468 462 457 453 453 447 445 442 433 426 424 418 416 412 411 411 409 408 408 406 406 405 405 404 404 403 403 402 404 405 405 404 404 403 403 403 403 402 402 401 401 400 400 400 399 399 396 394 392 392 389 389 387 383 376 375 370 367 367 363 363 361 355 352 350 348 342 342 340 340 339 339 338 338 337 337 336 334 337 337 335 334 334 333 333 333 335 339 339 338 338 337 339 338 340 341 342 345 352 351 355 356 361 362 363 367 366 364 363 361 359 360 358 358 361 367 374 383 389 404 416 430 445 476 490 507 525 559 576 594 611 642 654 666 678 696 712 729 746 775 792 809 825 849 859 868
876 867 856 838 829 816 802 768 753 734 713 673 654 635 619 591 580 571 563 545 538 531 525 513 509 503 496 490 490 488 488 487 485 484 484 485 486 486 487 490 490 488 489 488 488 488 492 492 493 493 494 497 497 496 504 505 507 510 514 517 519 518 525 526 527 529 528 528 527 527 528 528 529 531 530 530 528 527 525 523 522 520 520 519 519 517 520 519 519 520 521 521 521 520 520 519 519 519 520 519 519 519 513 511 510 508 508 506 505 505 501 502 503 503 502 500 500 501 501 500 500 501 502 502 503 503 503 502 504 503 506 506 507 509 510 509 509 508 506 506 505 505 504 502 500 498 494 492 490 484 482 476 474 472 466 464 462 460 460 457 455 455 454 454 454 455 456 457 457 457 456 456 455 455 453 452 450 450 453 453 452 447 446 444 442 442 441 440 440 440 437 437 437 436 436 435 435 435 430 427 426 428 427 423 421 421 420 420 419 419 415 413 411 410 403 401 397 395 387 387 385 384 382 380 380 379 379 378 378 376 377 380 380 376 372 370 368 364 358 342 340 334 325 316 310 308 305 292 290 288 285 276 276 272 273 271 271 268 268 266 264 261 259 259 258 258 258 257 257 256 258 257 257 253 251 250 248 246 244 240 237 235 233 233 232 232 232 233 234 234 237 236 238 239 239 247 250 253 254 261 265 269 268 278 281 288 293 304 311 317 324 334 342 347 355 368 378 385 392 407 413 422 427 435 438 437 440 442 443 443 444 443 445 444 446 450 450 455 457 458 461 464 467 468 470 471 471 472 473 476 478 477 477 476 476 475 475 475 473 465 463 457 453 449 445 443 441 427 425 422 419 416 412 412 408 408 407 407 406 406 407 407 406 406 405 405 405 404 404 404 404 403 402 404 404 403 403 402 402 401 401 400 400 400 399 397 395 393 390 386 386 386 375 374 374 368 366 366 360 360 355 353 353 351 347 343 342 340 340 339 339 339 338 338 337 337 338 339 339 337 336 338 341 339 342 342 341 341 340 340 340 341 340 340 341 343 348 354 354 357 358 363 364 366 369 368 368 368 365 363 363 362 362 365 370 376 383 393 403 413 425 456 472 486 503 537 555 572 589 622 637 649 660 680 690 700 715 750 767 784 802 833 845 855 863
